# .PCD v0.7 - Point Cloud Data file format
VERSION 0.7
FIELDS x y z intensity
SIZE 4 4 4 4
TYPE F F F F
COUNT 1 1 1 1
WIDTH 1246
HEIGHT 1
VIEWPOINT 0 0 0 1 0 0 0
POINTS 1246
DATA ascii
-0.9425438 -1.3358605 -0.078461304 256
-0.94133216 -1.2999431 -0.076342493 280
-0.94413823 -1.2706692 -0.074788705 250
-0.93549538 -1.2272372 -0.071963623 285
-0.93391198 -1.1944351 -0.070056692 264
-0.93416059 -1.1649748 -0.068432271 311
-0.93319607 -1.1349199 -0.06673722 295
-0.93484861 -1.1088827 -0.065395311 313
-0.93339765 -1.0799571 -0.06377089 330
-0.93468446 -1.0549725 -0.062499601 314
-0.92277038 -1.0160801 -0.059886407 399
-0.93177474 -1.0010263 -0.059533272 381
-0.91715938 -0.96134561 -0.056778815 276
-0.91843641 -0.93931067 -0.055719409 256
-0.92283958 -0.92091703 -0.055013139 349
-0.91764802 -0.89350295 -0.053388719 343
-0.91553777 -0.86979598 -0.052117433 355
-0.91444772 -0.84763485 -0.050987404 335
-0.91664946 -0.82898188 -0.050210509 295
-0.91778487 -0.80974299 -0.049362984 338
-0.91934299 -0.79125363 -0.048586089 372
-0.92440349 -0.77605969 -0.048162322 388
-0.9300015 -0.76149398 -0.047809187 316
-0.93616062 -0.74753129 -0.047526684 293
-0.94683647 -0.73721409 -0.047667932 330
-0.95422405 -0.72433162 -0.047526684 353
-0.4926821 -0.36383685 -0.0060686395 602
-0.45910931 -0.33030558 -0.0027491711 735
-0.46312809 -0.32464668 -0.0027491711 798
-0.46707714 -0.318939 -0.0027491711 884
-0.47012639 -0.31262913 -0.0026785471 822
-0.47392741 -0.30683643 -0.0026785471 1063
-0.48187119 -0.30366516 -0.0030316785 758
-0.48301342 -0.29615954 -0.0028197989 1110
-0.47634342 -0.28405765 -0.0019722767 1785
-0.48065522 -0.27869299 -0.0020429008 893
-0.47883111 -0.26982442 -0.0016191415 961
-0.48123226 -0.26344725 -0.0015485138 939
-0.47827041 -0.25423133 -0.001054123 1001
-0.4778122 -0.24650608 -0.00077161565 1075
-0.47991017 -0.24017566 -0.00070098788 1180
-0.48102838 -0.23339356 -0.00055973604 1336
-0.48205265 -0.22662036 -0.00041848049 1356
-0.47663468 -0.21695049 0.00021716207 1554
-0.47652516 -0.20987284 0.00042904168 1652
-0.47814786 -0.20361648 0.00049966946 1680
-0.47231588 -0.19429925 0.001135312 1920
-0.47003344 -0.18663734 0.0014884472 2295
-0.47135764 -0.18049641 0.001559075 2394
-0.47073197 -0.17365631 0.0017709546 2476
-0.47094908 -0.16719483 0.0019122101 2554
-0.46730554 -0.15945683 0.0023359694 2684
-0.46922714 -0.15371028 0.0023359694 2774
-0.4710781 -0.14794055 0.0023359694 3083
-0.46713051 -0.14041208 0.0027597323 3290
-0.44869885 -0.12883788 0.0042429008 5180
-0.44736186 -0.12252423 0.0044547804 5272
-0.43725652 -0.11397621 0.0053023025 5492
-0.43668699 -0.10811737 0.0054435581 5402
-0.43701035 -0.10252007 0.0055141859 5294
-0.43823549 -0.097149558 0.0055141859 5329
-0.43549106 -0.09093865 0.0057966933 5393
-0.44342276 -0.086948834 0.0053023025 5123
-0.43170756 -0.079129174 0.0062204544 6097
-0.44050881 -0.075188577 0.0056554377 5828
-0.44336808 -0.070093818 0.0055141859 6290
-0.44419485 -0.064647734 0.0055141859 6352
-0.44001245 -0.058521442 0.005867321 5633
-0.42980728 -0.05177591 0.0066442173 5212
-0.44528192 -0.048144549 0.0055848137 6603
-0.45080274 -0.04316473 0.0052316785 6207
-0.45030469 -0.037544008 0.0053023025 6228
-0.43680412 -0.030990044 0.0062910821 5325
-0.46204242 -0.027152844 0.0045254081 6755
-0.43643683 -0.020212209 0.006361708 5902
-0.40375653 -0.013648354 0.0086923987 4090
-0.4387958 -0.009544082 0.0062204544 3560
-0.44885421 -0.0042795492 0.0055141859 3065
-0.48157397 -0.0012338985 0.00025603175 535
-0.46958926 0.0045308522 0.0011787489 173
-0.46650806 0.010220145 0.0014094263 237
-0.4633584 0.015834508 0.0016401075 272
-0.45416662 0.021080503 0.0023321435 134
-0.45586401 0.026774213 0.0021783561 117
-0.47538814 0.033830248 0.00064049661 301
-0.46798354 0.039063707 0.0011787489 564
-0.46449217 0.044510916 0.0014094263 791
-0.463911 0.0502076 0.0014094263 714
-0.47315556 0.057115693 0.00064049661 868
-0.47143102 0.062783696 0.00071739033 787
-0.4706251 0.068564162 0.00071739033 742
-0.46974826 0.074334286 0.00071739033 698
-0.4707655 0.080433846 0.00056360289 614
-0.46974298 0.086204797 0.00056360289 652
-0.47060552 0.092351504 0.00040981546 617
-0.47138771 0.098532304 0.00025603175 592
-0.47208878 0.10474615 0.00010224432 660
-0.47076786 0.11053151 0.00010224432 622
-0.469376 0.11630024 0.00010224432 621
-0.46887764 0.12230542 2.53506e-05 603
-0.46734145 0.12805004 2.53506e-05 577
-0.46765015 0.1343305 -0.00012843311 528
-0.46692064 0.14034845 -0.00020532683 527
-0.46611372 0.14636868 -0.00028222054 527
-0.466176 0.15270282 -0.00043600798 536
-0.46709555 0.15938462 -0.0006666854 534
-0.46979854 0.16678335 -0.0010511503 573
-0.47145495 0.17392492 -0.0013587214 535
-0.4692851 0.1796973 -0.0013587214 526
-0.46889624 0.18618278 -0.0015125088 513
-0.46749741 0.19230424 -0.0015894026 525
-0.46510234 0.19802667 -0.0015894026 504
-0.46263722 0.20371927 -0.0015894026 504
-0.46100897 0.20979628 -0.0016662963 530
-0.46020249 0.21629007 -0.00182008 513
-0.46020183 0.22323272 -0.0020507611 569
-0.4609904 0.23065586 -0.0023583323 524
-0.46166551 0.23813172 -0.0026659034 528
-0.462226 0.24565859 -0.0029734783 496
-0.46092373 0.25227356 -0.003127262 504
-0.45952839 0.25889346 -0.0032810494 552
-0.45717826 0.26501498 -0.0033579431 532
-0.45474696 0.27111775 -0.0034348369 530
-0.45308352 0.27772358 -0.0035886206 497
-0.45216861 0.28486258 -0.0038193017 541
-0.45114633 0.29202068 -0.0040499792 509
-0.45001611 0.29919633 -0.0042806603 516
-0.44877732 0.30638799 -0.0045113377 513
-0.44905993 0.314742 -0.0048958026 449
-0.44839633 0.32256475 -0.0052033737 453
-0.44920972 0.33160579 -0.0056647323 430
-0.44907448 0.34011135 -0.0060491972 476
-0.45036972 0.34988961 -0.0065874495 456
-0.45149174 0.35975021 -0.0071257018 463
-0.45320961 0.37032279 -0.0077408478 457
-0.45168304 0.37842372 -0.0080484189 467
-0.44700518 0.38393807 -0.0080484189 448
-0.44375405 0.3907153 -0.0082022026 448
-0.44483688 0.40148708 -0.0088173486 666
-0.45010471 0.41641435 -0.0098938495 933
-0.44207197 0.41915688 -0.0095862783 463
-0.44046357 0.42803124 -0.0099707432 414
-0.44293413 0.44115812 -0.010816567 526
-0.43818352 0.44727388 -0.01089346 432
-0.43747503 0.45767137 -0.011431713 363
-0.44064885 0.47250038 -0.012431324 400
-0.4395051 0.48304284 -0.012969572 352
-0.43816835 0.49362761 -0.013507824 377
-0.43989405 0.50802583 -0.014430542 361
-0.44261527 0.52406502 -0.015507042 306
-0.44500768 0.54024583 -0.016583547 300
-0.44519892 0.55422777 -0.01742937 300
-0.44572651 0.56908029 -0.018352088 318
-0.44837096 0.58720142 -0.019582376 330
-0.4441016 0.59666312 -0.019966841 302
-0.44784573 0.61741936 -0.02142781 355
-0.45057139 0.63754004 -0.022811882 359
-0.45004827 0.6537081 -0.023811493 294
-0.44919506 0.66995764 -0.024811104 321
-0.44855353 0.68711871 -0.025887609 309
-0.45129216 0.71025908 -0.027502358 319
-0.45300555 0.73271871 -0.029040217 317
-0.4567976 0.75960046 -0.030962549 314
-0.45597881 0.77979159 -0.032269731 257
-0.45374882 0.79833996 -0.033423126 291
-0.44968843 0.81432885 -0.034345843 233
-0.45000446 0.83912921 -0.03603749 210
-0.44885942 0.8622871 -0.037575349 216
-0.44676393 0.88465011 -0.039036319 230
-0.44506079 0.90888083 -0.040651068 234
-0.44069678 0.92869395 -0.04188136 241
-0.42968243 0.93493849 -0.04195825 1098
-0.43757761 0.98389012 -0.045649119 238
-0.42193413 0.98093873 -0.044957079 310
-0.4113915 0.98972702 -0.045264654 1592
-0.40254828 1.0030322 -0.045956694 600
-0.39092714 1.0097569 -0.046110474 792
-0.37711635 1.0107402 -0.045802906 846
-0.36502063 1.0162305 -0.045879796 877
-0.351549 1.0178051 -0.045649119 824
-0.33934537 1.0229892 -0.045726009 794
-0.32556114 1.0232747 -0.045418441 1733
-0.30689844 1.0071574 -0.043803684 530
-0.29201543 1.0022298 -0.043111645 464
-0.27809811 0.99997258 -0.04265029 403
-0.26529741 1.0013818 -0.042496502 398
-0.25323141 1.005529 -0.0425734 341
-0.23902875 1.0008007 -0.04195825 371
-0.22563638 0.99879479 -0.041573785 409
-0.2127427 0.99856228 -0.041343108 358
-0.19930482 0.99523062 -0.040881753 387
-0.18652886 0.99466097 -0.040651068 396
-0.17413817 0.9958927 -0.040574178 423
-0.16158687 0.99598598 -0.040420391 383
-0.14935242 0.99789393 -0.040420391 405
-0.13682681 0.99767566 -0.040266603 415
-0.12445128 0.99829012 -0.040189713 487
-0.11219136 0.99974215 -0.040189713 475
-0.098837867 0.99012917 -0.039343886 349
-0.0871085 0.99623424 -0.039728351 710
-0.074656114 0.99424523 -0.039497674 591
-0.062143121 0.99011075 -0.039113209 560
-0.049742889 0.98581958 -0.038728744 566
-0.037457373 0.98137403 -0.038344279 606
-0.02541158 0.98175979 -0.038344279 553
-0.013461063 0.98997343 -0.038959421 432
-0.00131201 0.99305522 -0.039190106 471
0.01106773 1.008948 -0.040420391 405
0.023812985 1.0236872 -0.041573785 371
0.036665779 1.031289 -0.042188935 334
0.052976295 1.1054498 -0.047955908 209
0.070624016 1.1713929 -0.053107746 140
0.087921292 1.210212 -0.056183465 102
0.12761478 1.4981143 -0.078559346 552
0.14559905 1.4924664 -0.078251772 712
0.16401269 1.4915584 -0.078328662 649
0.18279164 1.4933918 -0.078636236 650
0.20150617 1.494 -0.078866914 691
0.22026312 1.4943736 -0.079097591 675
0.23890127 1.4935268 -0.079251379 637
0.2578924 1.4944124 -0.079558954 646
0.27767047 1.4989768 -0.080174096 682
0.29468378 1.4886111 -0.079635844 543
0.31519899 1.4956129 -0.080481671 601
0.33505684 1.4984421 -0.081019923 671
0.35388026 1.4961578 -0.081173703 690
0.37318221 1.4955713 -0.081481278 622
0.39226902 1.4937717 -0.081711955 614
0.41136765 1.4917283 -0.08194264 569
0.43075269 1.4903984 -0.082250208 586
0.45045611 1.4897708 -0.082634673 583
0.4705098 1.4898341 -0.083096035 605
0.49094519 1.4905754 -0.083634287 637
0.51114506 1.4900956 -0.084095642 619
0.53174257 1.4902827 -0.084633894 618
0.55207413 1.4892528 -0.085095249 586
0.57281876 1.4888778 -0.085633501 622
0.5932669 1.4872912 -0.086094864 638
0.61414349 1.4863474 -0.086633116 592
0.63626379 1.4878635 -0.087402046 549
0.65770549 1.487236 -0.088017181 544
0.68005723 1.4881184 -0.088786125 518
0.70423365 1.4922802 -0.089862615 478
0 0 0 461
0 0 0 490
0 0 0 482
0 0 0 462
0 0 0 482
0 0 0 533
0 0 0 463
0 0 0 503
0 0 0 491
0 0 0 490
0 0 0 509
0 0 0 480
0 0 0 515
0 0 0 488
1.061249 1.4707022 -0.10247308 512
1.0910931 1.4735866 -0.10401094 451
1.1163373 1.4696091 -0.10493366 511
1.1465534 1.4715216 -0.10647152 458
1.1782284 1.4744681 -0.10816316 373
1.2057197 1.4714608 -0.10931656 369
1.2326713 1.4672358 -0.11039306 390
1.2616528 1.4648348 -0.11170025 371
1.2940612 1.4656765 -0.11339189 434
1.325339 1.4644632 -0.11492975 391
1.3574584 1.4634312 -0.11654451 378
1.3890624 1.4611073 -0.11808237 394
1.4173307 1.4546571 -0.11923577 483
1.465386 1.4674748 -0.12254217 280
1.5153915 1.4807206 -0.12600236 213
1.560884 1.4881421 -0.1289243 376
1.5695335 1.4600525 -0.12792468 218
1.6131853 1.464121 -0.13061593 318
1.6392459 1.4514806 -0.13146175 312
1.6780705 1.4494932 -0.13361476 419
1.7186159 1.4480529 -0.13592155 507
1.7624576 1.4483632 -0.13853592 267
1.8104534 1.4509281 -0.14153475 643
1.8674181 1.4592782 -0.14537939 254
1.8899454 1.4398755 -0.14584076 450
1.9555168 1.4522179 -0.15045434 244
2.0022774 1.4491421 -0.15322249 235
2.0468073 1.4434114 -0.15575996 252
2.1038251 1.445266 -0.15945083 226
2.1678221 1.4503671 -0.16375683 206
2.2264044 1.4503032 -0.16752461 184
2.2802517 1.445815 -0.17083099 218
2.3419576 1.4449286 -0.17482944 172
2.3979928 1.4391524 -0.17828962 190
2.4688759 1.440752 -0.183057 148
2.5349467 1.4378748 -0.187363 136
2.5995646 1.4326268 -0.19151524 151
2.6943221 1.4419901 -0.19828182 135
2.752522 1.4299463 -0.2018189 103
2.8375416 1.4301406 -0.20766278 148
2.9041548 1.4192719 -0.21189189 113
3.0231938 1.4317127 -0.2205808 94
3.0912945 1.4177645 -0.22488682 96
3.2023385 1.4213535 -0.23280679 128
3.3020093 1.4173158 -0.23972718 96
3.4720535 1.4400492 -0.25249141 110
3.5385258 1.4169621 -0.25656676 91
3.6291318 1.4017911 -0.26264131 86
3.6899827 1.3734844 -0.26625526 58
2.752835 0.98668683 -0.18813193 157
2.7609649 0.95153308 -0.18782437 195
2.8112473 0.93040895 -0.19097698 74
5.0170135 1.5914429 -0.368523 32
5.1773667 1.572613 -0.3799032 54
5.3552275 1.5550821 -0.39266747 326
5.3652596 1.4868535 -0.3919754 178
5.3715324 1.4178504 -0.39105266 147
5.5993605 1.4046717 -0.4078154 58
5.8402514 1.3891039 -0.42557764 57
6.1311822 1.378976 -0.44726151 267
6.1339874 1.30074 -0.44618499 232
6.1338415 1.2222539 -0.44495469 221
6.1346564 1.1443331 -0.44387823 244
6.1168022 1.063506 -0.44141763 221
6.1215186 0.98709506 -0.44080251 236
6.126267 0.91087514 -0.44026423 259
6.1211762 0.83347845 -0.43903393 248
6.1190691 0.75683302 -0.43811125 301
6.1011405 0.67871439 -0.4360351 302
6.1169477 0.60457593 -0.43665028 286
6.0990725 0.52732366 -0.43472797 339
6.1060786 0.4525125 -0.43480486 311
6.0972395 0.37668934 -0.43372834 380
6.099411 0.30174038 -0.43357456 387
6.0906987 0.22642627 -0.43265182 415
6.0900283 0.15159312 -0.43242115 410
6.0764756 0.076661877 -0.43126774 413
6.0859323 0.0020897752 -0.43195981 476
6.0705452 -0.072412886 -0.4308064 450
6.0662088 -0.14682941 -0.43057573 476
6.0898557 -0.22221026 -0.43257493 435
6.0687456 -0.29604757 -0.43119085 465
6.0756021 -0.37116897 -0.4320367 449
6.0874939 -0.44694233 -0.43334389 439
6.0636702 -0.52007455 -0.43195981 452
6.0687385 -0.59561688 -0.43288249 461
6.080792 -0.67223966 -0.43442035 408
6.0602102 -0.7453469 -0.43349767 392
6.0545592 -0.82019502 -0.43380523 343
6.0529146 -0.89574736 -0.43449724 386
6.0552483 -0.97217375 -0.43557376 409
6.0664396 -1.0504951 -0.43741918 329
6.0511312 -1.1244959 -0.4372654 351
6.0505667 -1.201389 -0.43834192 299
6.0558529 -1.2798816 -0.43995667 278
6.0465007 -1.355628 -0.44049489 312
6.0284395 -1.4294956 -0.440418 294
6.0394592 -1.5106295 -0.44272482 338
6.0407143 -1.5899626 -0.44433957 342
6.0313187 -1.6668952 -0.44518542 402
6.0257316 -1.7452241 -0.44641566 397
6.0267601 -1.8259803 -0.44826114 381
5.2520304 -1.6617359 -0.38743871 77
5.1810641 -1.7094929 -0.38336337 180
5.1182103 -1.7586789 -0.37998009 314
5.0483642 -1.8042315 -0.37605852 211
5.2323937 -1.942788 -0.39305192 142
5.3486319 -2.061013 -0.40466273 297
6.0024843 -2.3981299 -0.46110225 218
5.9891853 -2.4784744 -0.46248633 521
5.7292061 -2.4536128 -0.44326305 840
5.8973866 -2.6117847 -0.46002573 203
5.853107 -2.6785626 -0.45902616 12
4.6092453 -2.177866 -0.35575879 25
4.5570822 -2.2220235 -0.35360575 28
4.5098772 -2.2679193 -0.35191411 14
4.4790516 -2.3217146 -0.35168344 18
5.3498306 -2.8571782 -0.43034506 46
5.276804 -2.9019468 -0.42703861 55
5.094173 -2.8834524 -0.41404372 98
4.9619179 -2.889534 -0.40543169 115
4.8217425 -2.8876877 -0.39605075 162
4.6645484 -2.8718646 -0.38505501 76
4.5185962 -2.8590293 -0.37498206 118
4.4079466 -2.8653419 -0.36806166 123
4.2903728 -2.8643923 -0.36044925 119
4.1447196 -2.8412592 -0.35014558 123
3.9994819 -2.8144202 -0.33976501 133
3.9355502 -2.8422663 -0.33699685 139
3.3285179 -2.4663646 -0.28209525 89
3.6678061 -2.7883015 -0.31792742 79
3.6120884 -2.8165421 -0.31585127 119
3.5025151 -2.8008585 -0.30846953 96
3.3869445 -2.7772272 -0.30039579 137
3.2801235 -2.7576091 -0.29309094 142
3.1916718 -2.7507727 -0.28755462 162
3.1083717 -2.74615 -0.2824797 178
3.0382345 -2.7512844 -0.27871197 190
2.9691749 -2.7557943 -0.27502108 190
2.8961341 -2.754904 -0.27086884 181
2.7957335 -2.7254899 -0.26371783 167
2.7416284 -2.7391503 -0.2614879 114
2.457098 -2.5157261 -0.23380642 11
0 0 0 10
2.3708646 -2.5497055 -0.23111515 13
2.3172977 -2.5542319 -0.22857769 26
2.2494476 -2.5414016 -0.22434856 15
2.1855235 -2.5310709 -0.22050391 24
0 0 0 9
2.0835266 -2.5361652 -0.21573655 14
2.0391612 -2.5451975 -0.21412177 17
1.9194258 -2.4568572 -0.20304918 54
1.9102665 -2.5079949 -0.20574044 241
1.8460784 -2.4864066 -0.20143443 313
1.792644 -2.4773626 -0.1984356 269
1.7753152 -2.5179214 -0.20020415 249
1.2850382 -1.8703597 -0.13761321 52
1.2536786 -1.8735542 -0.13645981 34
1.2213475 -1.8745916 -0.13515262 36
1.1897147 -1.8759619 -0.13392234 26
1.1613725 -1.8819326 -0.13315341 21
1.1248603 -1.8738098 -0.13115419 26
1.0942484 -1.8745524 -0.13000078 37
1.0632974 -1.8739604 -0.1287705 27
1.0334884 -1.8746401 -0.127694 23
1.004294 -1.8757513 -0.1266944 32
0.97614771 -1.8781999 -0.12584856 42
0.94854164 -1.8811322 -0.12507963 37
0.92319852 -1.8881509 -0.12469517 48
0.90379637 -1.907449 -0.12538721 143
0.89361173 -1.9474016 -0.12784779 118
0.88621819 -1.9955901 -0.1310004 106
0.87973893 -2.0484664 -0.13453749 85
0.87323773 -2.1042411 -0.13830525 114
0.87883019 -2.1934831 -0.14484115 73
0.87051314 -2.2524717 -0.14883959 79
0.86609083 -2.325597 -0.15399142 78
0.86806619 -2.4214721 -0.16098869 75
0.85353678 -2.4762518 -0.16460267 80
0.86970681 -2.6275935 -0.17605972 135
0.84522945 -2.6627796 -0.17805895 1240
0.81219977 -2.6719973 -0.17798205 452
0.77434796 -2.6645272 -0.17659798 623
0.74105966 -2.6719074 -0.17644419 535
0.7049101 -2.668267 -0.17544459 471
0.66459858 -2.6467359 -0.17306089 266
0.63229954 -2.6556621 -0.1731378 263
0.59725827 -2.6525209 -0.17229196 430
0.56321627 -2.6528225 -0.17175372 414
0.53023028 -2.6575787 -0.17159992 395
0.49958697 -2.6746671 -0.17244576 328
0.47150403 -2.7081017 -0.17459875 405
0.43728471 -2.707778 -0.1741374 323
0.40285161 -2.7050502 -0.17352226 395
0.3690888 -2.7058384 -0.17321469 353
0.3354896 -2.7071958 -0.172984 373
0.30213284 -2.7101176 -0.17290711 374
0.26816764 -2.7066758 -0.17236885 356
0.23407543 -2.6998291 -0.17159992 351
0.20070626 -2.6995156 -0.17136925 406
0.16768651 -2.7037654 -0.17152303 437
0.13395469 -2.6946654 -0.17067721 427
0.10069267 -2.6911247 -0.17029275 405
0.067660853 -2.6921575 -0.17029275 440
0.03468078 -2.6977701 -0.17067721 405
0.0015722294 -2.6969955 -0.17060032 338
-0.031487923 -2.6938207 -0.17036964 415
-0.064469926 -2.6902411 -0.17013897 421
-0.097478464 -2.6892474 -0.17013897 457
-0.1305211 -2.6888447 -0.17021586 388
-0.16332458 -2.6840549 -0.16998518 399
-0.1969817 -2.6917922 -0.1707541 465
-0.2299993 -2.689172 -0.1707541 445
-0.263275 -2.6891239 -0.17098479 426
-0.29636461 -2.6866817 -0.17106168 391
-0.32906821 -2.6808634 -0.1709079 335
-0.3635501 -2.6884789 -0.17183061 249
-0.39636838 -2.6828294 -0.17175372 96
-0.14680706 -0.92060459 -0.034499623 44
-0.15264346 -0.88729745 -0.032039046 78
-0.15877941 -0.85987163 -0.030039832 83
-0.16465467 -0.83438849 -0.028194398 94
-0.17240533 -0.82059968 -0.027271681 95
-0.17765968 -0.7970196 -0.025580034 89
-0.18397358 -0.78022802 -0.024426639 76
-0.19232374 -0.77307564 -0.02404217 77
-0.20001835 -0.76390827 -0.023503922 71
-0.21442737 -0.7796545 -0.024964888 142
-0.22952975 -0.79611701 -0.026502751 437
-0.24014989 -0.79610282 -0.026733428 456
-0.24869736 -0.78929377 -0.026425853 510
-0.25680146 -0.78144866 -0.026041389 506
-0.26539904 -0.77540988 -0.025810711 499
-0.27590179 -0.77491105 -0.026041389 428
-0.28990453 -0.78361696 -0.027041003 372
-0.30452055 -0.79302436 -0.0281175 316
-0.31904024 -0.80126333 -0.029117115 293
-0.32961178 -0.79913026 -0.029270902 165
-0.33860812 -0.79319239 -0.029117115 237
-0.3467007 -0.78533113 -0.02880954 195
-0.35257632 -0.77285862 -0.0281175 151
-0.35990316 -0.76396686 -0.027733035 105
-0.37318572 -0.7675575 -0.028425075 105
-0.39198777 -0.78162372 -0.030039832 57
-0.95285708 -1.8397378 -0.12238838 126
-0.94810945 -1.7769021 -0.11792858 234
-0.95638591 -1.7406741 -0.11577559 222
-0.9536007 -1.686295 -0.11200781 196
-0.95514953 -1.6417292 -0.10908589 200
-0.95318878 -1.5931079 -0.10577948 222
-0.95122766 -1.5464854 -0.10262686 242
-0.94826913 -1.5001562 -0.099474251 228
-0.94486368 -1.4549735 -0.096398532 271
-0.94492567 -1.4167379 -0.093937948 235
-0.94419432 -1.378724 -0.091477379 235
-0.94497091 -1.3442066 -0.08932437 253
-0.93978941 -1.3026077 -0.086479329 297
-0.93729538 -1.2661483 -0.084095642 302
-0.92982572 -1.2243952 -0.081173703 326
-0.9312886 -1.1955984 -0.079482056 313
-0.930318 -1.1646168 -0.077559732 287
-0.93189168 -1.1376964 -0.076021872 318
-0.93423021 -1.1124408 -0.0746378 281
-0.93478876 -1.0857915 -0.073099934 272
-0.93615657 -1.0607921 -0.071715862 231
-0.93638396 -1.0351857 -0.070254892 281
-0.92527014 -0.99804628 -0.067563638 353
-0.91613901 -0.96422821 -0.065179951 286
-0.91328233 -0.9379251 -0.063565202 295
-0.91626447 -0.91818571 -0.062642485 286
-0.9124794 -0.8922478 -0.061027728 293
-0.91036403 -0.86860603 -0.059643656 357
-0.91072929 -0.84786737 -0.058567151 329
-0.91146284 -0.82792157 -0.057567544 314
-0.91781998 -0.81337136 -0.057183072 293
-0.92093843 -0.79618484 -0.05649104 294
-0.92148578 -0.7771191 -0.055568323 377
-0.92170537 -0.75816089 -0.054645605 251
-0.94650644 -0.75925565 -0.056183465 144
-0.94003391 -0.73531276 -0.054645605 250
-0.94819319 -0.72311789 -0.054568715 304
-0.95779634 -0.71202171 -0.054645605 257
-0.45340177 -0.32925579 -0.0058185197 362
-0.46066841 -0.32596394 -0.0061260909 423
-0.46216765 -0.31859377 -0.0058954135 455
-0.46272677 -0.31068206 -0.0055878423 472
-0.46483314 -0.30389261 -0.0054340549 436
-0.47358102 -0.30136678 -0.0058954135 319
-0.46875602 -0.29030085 -0.0051264837 434
-0.47912407 -0.28862831 -0.005741626 1657
-0.4826299 -0.282727 -0.005741626 521
-0.48346075 -0.2753084 -0.0055109486 562
-0.48330921 -0.26743129 -0.0052033737 513
-0.48391688 -0.26006979 -0.0049726963 611
-0.47999236 -0.25043735 -0.0043575503 543
-0.47679588 -0.24138932 -0.0038193017 487
-0.47703436 -0.23420776 -0.0035886206 498
-0.47626758 -0.22663046 -0.0032810494 522
-0.47448072 -0.2186922 -0.0028965846 491
-0.47530583 -0.21204476 -0.0027427971 547
-0.47329044 -0.20423122 -0.0023583323 507
-0.47115561 -0.19649941 -0.0019738674 496
-0.47075438 -0.18959172 -0.00174319 505
-0.47118518 -0.18308261 -0.0015894026 528
-0.47059289 -0.17624407 -0.0013587214 484
-0.46990412 -0.16944779 -0.001128044 503
-0.46911985 -0.16269512 -0.00089736655 495
-0.46918771 -0.15630025 -0.00074357912 502
-0.47011995 -0.15022957 -0.0006666854 502
-0.47288218 -0.14473873 -0.00074357912 514
-0.4755803 -0.13920268 -0.00082047284 520
-0.47725272 -0.13335609 -0.00082047284 514
-0.47788918 -0.12723516 -0.00074357912 524
-0.47651321 -0.12063393 -0.00051289797 554
-0.47407758 -0.11385521 -0.00020532683 559
-0.47446629 -0.10781038 -0.00012843311 606
-0.47380278 -0.10156654 2.53506e-05 541
-0.47403565 -0.095549934 0.00010224432 615
-0.47321215 -0.089360304 0.00025603175 580
-0.47132608 -0.083034709 0.00048670918 569
-0.47230959 -0.077244565 0.00048670918 616
-0.47322193 -0.071442783 0.00048670918 619
-0.47307503 -0.065495908 0.00056360289 652
-0.47483271 -0.059807811 0.00048670918 647
-0.47553089 -0.053976387 0.00048670918 599
-0.47615743 -0.048136823 0.00048670918 678
-0.47571895 -0.04220432 0.00056360289 704
-0.47520676 -0.036289841 0.00064049661 650
-0.47462109 -0.030394299 0.00071739033 719
-0.4699792 -0.024322309 0.0011018552 1017
-0.46924594 -0.018516259 0.0011787489 1135
-0.4684411 -0.012731873 0.0012556389 1004
-0.46955901 -0.0069948095 0.0011787489 803
-0.48138389 -0.00043868585 -0.0025887564 471
-0.44846928 0.005068691 0.00014965609 984
-0.44936958 0.010596065 6.667152e-05 3015
-0.44820982 0.016073152 0.00014965609 885
-0.46888131 0.022596752 -0.0015929714 141
-0.47155276 0.028531948 -0.0018419176 402
-0.44632062 0.032486416 0.00023263693 2955
-0.44191682 0.037619438 0.00056456402 5686
-0.4414219 0.043039605 0.00056456402 5925
-0.44482249 0.048892226 0.00023263693 5866
-0.44715619 0.054712843 -1.6309321e-05 5933
-0.42373866 0.057113811 0.0018922798 4029
-0.45060775 0.066400714 -0.00043122098 5708
-0.44287157 0.070817947 0.00014965609 5389
-0.44196916 0.07624732 0.00014965609 5348
-0.43218261 0.080024511 0.00089649484 4754
-0.44485193 0.088042371 -0.00026525557 5306
-0.42521369 0.089575246 0.0013114028 3130
-0.44644675 0.099806033 -0.00059718639 5071
-0.44712758 0.10573742 -0.00076314807 4825
-0.4477298 0.11170048 -0.00092911348 4768
-0.44921634 0.11794804 -0.0011780597 4687
-0.44005126 0.12132623 -0.00051420182 4341
-0.46532941 0.13448593 -0.0028377026 2735
-0.4674587 0.14134283 -0.0031696297 2513
-0.46663907 0.14736947 -0.0032526143 2514
-0.46574175 0.15339726 -0.0033355951 2456
-0.4638243 0.15910108 -0.0033355951 2455
-0.46465194 0.16578782 -0.0035845414 2303
-0.46164834 0.17113021 -0.0035015605 2259
-0.46509242 0.17893378 -0.003999453 2031
-0.47211507 0.18832706 -0.0048292726 1694
-0.46792698 0.19334392 -0.0046633109 1540
-0.4655191 0.19907156 -0.0046633109 1621
-0.46213004 0.20436545 -0.0045803264 1568
-0.47136638 0.21541475 -0.0056590959 1432
-0.46868739 0.22118291 -0.0056590959 1437
-0.46593788 0.22691777 -0.0056590959 1414
-0.4693495 0.23575421 -0.0062399693 1244
-0.4664211 0.2414961 -0.0062399693 1165
-0.46518031 0.24814096 -0.0064059347 1099
-0.4629733 0.25431117 -0.0064889155 1202
-0.46241909 0.26144674 -0.0067378618 1077
-0.46175903 0.26860675 -0.006986808 1074
-0.46013772 0.27527753 -0.0071527734 1024
-0.46011889 0.28299415 -0.0074847005 1036
-0.45829546 0.28968528 -0.0076506659 1015
-0.45804766 0.29746088 -0.0079825968 959
-0.45684883 0.30472013 -0.008231543 990
-0.45554048 0.31199449 -0.0084804893 953
-0.45575166 0.32042986 -0.0088953972 899
-0.45582381 0.32891697 -0.0093103088 817
-0.45335415 0.33567294 -0.0094762743 886
-0.45158029 0.34302104 -0.0097252205 836
-0.45126536 0.35160196 -0.010140132 874
-0.45080721 0.36022624 -0.01055504 875
-0.45020482 0.36889184 -0.010969952 763
-0.44869447 0.37695491 -0.011301879 816
-0.44780821 0.38568684 -0.01171679 893
-0.45200101 0.39907372 -0.012712575 1959
-0.45740828 0.41395867 -0.013874326 1206
-0.45229393 0.41954058 -0.013874326 1189
-0.44711146 0.42505938 -0.013874326 914
-0.44970837 0.43816888 -0.01478713 682
-0.44641173 0.4457683 -0.015036076 580
-0.44578016 0.45620519 -0.01561695 753
-0.44633347 0.46813634 -0.016363792 607
-0.44394675 0.47722855 -0.0167787 616
-0.45077413 0.49666864 -0.018355362 548
-0.45256785 0.51112074 -0.019351147 496
-0.45212057 0.52342665 -0.020097986 510
-0.45208022 0.53656 -0.020927809 500
-0.45178467 0.54977012 -0.021757629 507
-0.44998643 0.56149662 -0.022421487 497
-0.44796768 0.57326084 -0.023085345 486
-0.4463307 0.58585215 -0.023832183 496
-0.44742006 0.60249043 -0.024993934 480
-0.44758314 0.61843437 -0.0260727 502
-0.44684726 0.6336568 -0.027068485 434
-0.44580409 0.64895278 -0.02806427 434
-0.44832805 0.6701169 -0.029640932 418
-0.44822389 0.68809724 -0.030885663 453
-0.45041105 0.71038347 -0.03254531 406
-0.44950277 0.72858262 -0.033790041 416
-0.44821441 0.74686456 -0.035034772 370
-0.45005718 0.77124923 -0.03686038 342
-0.45038477 0.79405475 -0.03852002 326
-0.45069948 0.8178547 -0.040262643 298
-0.451906 0.84441584 -0.042254221 328
-0.45206779 0.87024194 -0.044162806 352
-0.4552474 0.90331697 -0.046735253 393
-0.44937444 0.91958183 -0.047731038 351
-0.4431701 0.93583697 -0.048726823 358
-0.429162 0.93576896 -0.048228931 1159
-0.44107506 0.9938038 -0.053041894 533
-0.43198821 1.0064688 -0.053705756 445
-0.41159403 0.99236047 -0.051963124 1627
-0.40086582 1.0010377 -0.052295055 663
-0.38496381 0.99658424 -0.051465232 1861
-0.37444177 1.0059037 -0.051880147 1025
-0.36307707 1.0132377 -0.052129094 949
-0.35029143 1.0166746 -0.052046109 750
-0.3334111 1.0076495 -0.050884362 600
-0.31861201 1.0040653 -0.050220501 527
-0.3059772 1.0069458 -0.050137524 487
-0.2927644 1.0077536 -0.049888577 493
-0.27878028 1.0055078 -0.049390677 448
-0.26514971 1.0040351 -0.048975769 460
-0.25159743 1.0023801 -0.048560861 476
-0.23835629 1.0015138 -0.048228931 478
-0.22561133 1.0024188 -0.048062969 517
-0.21246712 1.0012122 -0.047731038 481
-0.19938661 0.9998346 -0.047399107 466
-0.18673705 1.0002466 -0.047233146 560
-0.17427793 1.0014811 -0.047150161 505
-0.16165827 1.0015765 -0.046984199 542
-0.14891621 1.0005277 -0.046735253 536
-0.13595587 0.99734241 -0.046320345 670
-0.12382881 0.99992472 -0.046403322 608
-0.1116588 1.0023595 -0.046486307 619
-0.099349909 1.0036542 -0.046486307 573
-0.086512387 0.99884069 -0.045988414 932
-0.074175142 0.9988333 -0.04590543 860
-0.06136138 0.99071622 -0.045158591 729
-0.049003117 0.98741329 -0.04482666 747
-0.036919136 0.98893613 -0.044909645 799
-0.024608633 0.98234099 -0.044328768 742
-0.012551944 0.98256898 -0.044328768 634
-0.00049445248 0.99261457 -0.045158591 590
0.011807699 1.0025107 -0.045988414 525
0.024376983 1.0132492 -0.046901215 479
0.037357848 1.0278118 -0.048145946 379
0.054993223 1.1297977 -0.056693111 171
0.07196448 1.1797665 -0.060925197 124
0.099466637 1.3557014 -0.075696021 114
0.12839229 1.4973543 -0.087645441 634
0.1466599 1.4946742 -0.087562457 737
0.16510054 1.4937525 -0.087645441 722
0.18378438 1.4945812 -0.087894395 702
0.20237938 1.4941884 -0.088060349 736
0.22099236 1.4935639 -0.088226318 664
0.23962045 1.4927074 -0.088392287 673
0.2589418 1.4955457 -0.08889018 778
0.27818647 1.4971542 -0.089305088 763
0.29731515 1.4975373 -0.089637011 699
0.31649503 1.4976759 -0.08996895 609
0.33615941 1.4995135 -0.090466842 697
0.35545605 1.4991539 -0.090798765 649
0.37455231 1.4975791 -0.091047704 662
0.39366338 1.4957609 -0.091296658 660
0.4127861 1.4936988 -0.091545597 629
0.4321948 1.4923496 -0.091877535 671
0.45192161 1.4917018 -0.092292443 651
0.47199818 1.491744 -0.092790335 635
0.49245614 1.4924635 -0.093371212 654
0.51332653 1.4938471 -0.094035074 668
0.5339691 1.4940035 -0.094615936 645
0.55469239 1.4938775 -0.095196813 633
0.57513416 1.4925369 -0.095694706 677
0.59599608 1.4918442 -0.096275583 575
0.61730856 1.491784 -0.096939445 588
0.63831627 1.4905082 -0.097520322 578
0 0 0 574
0 0 0 571
0 0 0 511
0 0 0 559
0 0 0 575
0 0 0 541
0 0 0 605
0 0 0 566
0 0 0 544
0 0 0 560
0 0 0 526
0 0 0 580
0 0 0 539
0 0 0 550
0.98117501 1.4694742 -0.10963571 536
1.0053344 1.466363 -0.11054851 580
1.0358754 1.4718417 -0.11237411 507
1.0643656 1.4735582 -0.1138678 474
1.0924587 1.4739943 -0.1152785 489
1.120118 1.4731677 -0.11660621 473
1.147307 1.4710966 -0.11785094 473
1.1764804 1.4709126 -0.11934462 423
1.2051883 1.4694617 -0.12075531 418
1.2359606 1.4698135 -0.12241496 467
1.2662703 1.4688743 -0.12399162 486
1.2987214 1.4696505 -0.12581722 525
1.3260268 1.463941 -0.12697898 487
1.3574553 1.4621625 -0.12863863 501
1.3897249 1.4605526 -0.13038124 424
1.4179817 1.4540886 -0.13162598 458
1.4963136 1.4971863 -0.13876244 114
1.5110079 1.4752312 -0.13834752 237
1.5578643 1.4840676 -0.14166681 111
1.5832595 1.4716218 -0.14249663 278
1.6137508 1.4634603 -0.14390732 365
1.6383065 1.4494888 -0.14465417 334
1.6899242 1.4585704 -0.14838837 466
1.72447 1.4518397 -0.15021397 528
1.7529404 1.4394206 -0.15137573 284
1.8163729 1.4545455 -0.15627167 402
1.8662935 1.4572873 -0.15967394 206
1.9109991 1.4547945 -0.16249533 245
1.9551198 1.4508272 -0.16523375 269
1.990544 1.4395708 -0.16705935 313
2.051239 1.4454526 -0.17145739 235
2.1123717 1.4500569 -0.17585546 223
2.1648059 1.447283 -0.17934071 250
2.2224963 1.4466982 -0.18332385 218
2.2855439 1.4481111 -0.18780488 198
2.3413186 1.4434843 -0.19153908 200
2.4118481 1.4464141 -0.19668397 145
2.4862382 1.4498333 -0.20216079 127
2.5402582 1.4398484 -0.20564604 136
2.6048777 1.4345204 -0.21012707 141
2.7057741 1.4470838 -0.21801037 108
2.7622476 1.433969 -0.2216616 144
2.8463938 1.4335756 -0.22788525 122
2.9183989 1.4252074 -0.23294717 146
3.040164 1.4387237 -0.24257308 127
3.1191976 1.4295341 -0.24821588 126
3.2348948 1.434775 -0.25717795 114
3.3585029 1.4405267 -0.26680386 123
3.5471683 1.4701567 -0.28223854 137
3.6648707 1.4664916 -0.29120064 191
3.7690566 1.4547719 -0.29891795 107
2.7535453 1.0242754 -0.20713972 109
2.7424512 0.98201233 -0.20506516 246
2.7467568 0.94568986 -0.20440131 203
4.3752437 1.4463214 -0.34621778 88
5.0614524 1.6044734 -0.40463722 44
5.1703997 1.569443 -0.41243753 40
5.3558035 1.5541897 -0.42687643 393
5.3696704 1.4870191 -0.42646152 170
5.3682413 1.4159312 -0.42480186 164
5.5882111 1.40082 -0.44222811 57
5.8405833 1.3881178 -0.46239278 64
6.1177583 1.3748853 -0.48463196 287
6.1234455 1.297436 -0.48371917 263
6.1193581 1.2183038 -0.48205954 239
6.1328683 1.1429355 -0.48197657 234
6.1228676 1.0634983 -0.479985 222
6.1197147 0.9857465 -0.47865725 209
6.1234651 0.90940326 -0.47799343 207
6.121326 0.83244556 -0.47691464 192
6.1132774 0.75506705 -0.47542095 218
6.11515 0.67922121 -0.4748401 225
6.1150904 0.60334545 -0.47417623 244
6.09622 0.52603263 -0.47201872 278
6.1071854 0.4515501 -0.47243363 262
6.1072931 0.37626547 -0.47201872 316
6.0945296 0.3004581 -0.470608 363
6.0927787 0.22546229 -0.47019309 374
6.085124 0.1504319 -0.46936327 421
6.0785403 0.075648032 -0.4686994 444
6.0879798 0.0010502706 -0.46944624 471
6.0795627 -0.073561728 -0.46878242 478
6.0712285 -0.14799133 -0.46820152 493
6.085885 -0.22310522 -0.46961224 466
6.0697498 -0.29713732 -0.46853346 435
6.0736036 -0.37208813 -0.46919733 462
6.0735493 -0.44695857 -0.46961224 407
6.0685997 -0.52154207 -0.46969521 353
6.060751 -0.59587634 -0.46961224 358
6.0757637 -0.67273003 -0.47152078 348
6.0670509 -0.7472384 -0.47152078 327
6.0554495 -0.82136607 -0.47135484 328
6.0488572 -0.89619845 -0.47168678 336
6.061018 -0.97415662 -0.47367835 295
6.0574441 -1.0499936 -0.4744252 242
6.05586 -1.1264365 -0.47542095 260
6.0542865 -1.2031922 -0.47649974 278
6.0488157 -1.27946 -0.47732955 255
6.0423827 -1.3557744 -0.47815937 267
6.0281997 -1.4305122 -0.47840834 309
6.0372591 -1.5111567 -0.48073184 330
6.0327148 -1.5889376 -0.48197657 331
6.0348535 -1.6689595 -0.48388517 364
6.031147 -1.7478849 -0.4853788 327
6.0197334 -1.8249457 -0.48629165 249
0 0 0 8
5.1754141 -1.708693 -0.4163377 235
5.1229577 -1.7613797 -0.41359928 322
5.0380888 -1.8016268 -0.40803948 239
5.0931344 -1.8921269 -0.41492698 126
5.3568444 -2.0652778 -0.44056848 393
5.3357239 -2.1327085 -0.44098338 99
5.9868107 -2.4786351 -0.50205821 83
4.9776692 -2.1326902 -0.41343331 69
4.9657011 -2.2000735 -0.41476104 86
5.621511 -2.5736749 -0.47732955 227
5.7012191 -2.6952875 -0.48761934 73
5.9462528 -2.9009562 -0.51342678 76
4.5606737 -2.2945945 -0.38762587 13
4.5224419 -2.345341 -0.38671306 18
5.3660984 -2.867049 -0.4691143 48
5.2484398 -2.8875234 -0.46131399 89
5.1102877 -2.8937624 -0.45152211 75
4.9581504 -2.8885248 -0.44031951 75
4.7958164 -2.8733404 -0.42803818 88
4.6600747 -2.8702989 -0.41824627 91
4.5133572 -2.856905 -0.40729263 100
4.4111271 -2.8686075 -0.40065405 121
4.287755 -2.8638451 -0.39185795 101
4.1536713 -2.8486037 -0.3819001 104
3.3638711 -2.3680842 -0.30505863 67
3.3361735 -2.4103534 -0.3052246 121
3.3255556 -2.4653568 -0.30721617 135
3.2839472 -2.4975343 -0.30605441 163
3.210624 -2.5045421 -0.3015734 101
3.1936533 -2.55496 -0.30306706 70
3.4093623 -2.7968695 -0.32970434 120
3.3427548 -2.811553 -0.32621908 198
3.2876248 -2.8347893 -0.32397857 251
3.2033129 -2.8313568 -0.31850174 263
3.1387877 -2.8436866 -0.31518245 256
3.0415878 -2.8243454 -0.30812898 249
2.9417355 -2.7996204 -0.30066058 233
2.8957453 -2.8243747 -0.29933289 242
2.8101258 -2.8089669 -0.29335815 144
2.4726641 -2.533004 -0.25726092 18
2.4255879 -2.5465581 -0.25535235 17
2.3853366 -2.5666413 -0.25427356 8
2.3195248 -2.5580654 -0.25004148 14
2.2483461 -2.541548 -0.24506256 18
2.1876931 -2.5349936 -0.24132836 21
2.1281855 -2.528101 -0.23767716 23
2.0774004 -2.5301483 -0.23510471 24
2.0380991 -2.545337 -0.23402593 20
1.9435512 -2.489243 -0.22547877 285
1.9110475 -2.5105267 -0.22522983 295
1.8438779 -2.4849665 -0.22016791 383
1.794561 -2.4815636 -0.21751249 270
1.778895 -2.5245812 -0.21967003 176
1.2786404 -1.8625798 -0.15062888 53
1.2451663 -1.8623881 -0.14905222 29
1.2195004 -1.8733516 -0.14863731 43
1.1905541 -1.878915 -0.14772451 36
1.16061 -1.8823547 -0.14664574 34
1.1281996 -1.8810706 -0.14515206 31
1.0959969 -1.8792768 -0.14365838 48
1.0669571 -1.8821805 -0.1426626 43
1.0351285 -1.879418 -0.14116892 35
1.0077584 -1.8840697 -0.14042208 30
0.98043066 -1.8883338 -0.13967524 23
0.95225435 -1.890432 -0.13876244 43
0.9241749 -1.8921245 -0.13784963 70
0.90386933 -1.9096287 -0.13843051 156
0.89697081 -1.9568163 -0.1417498 116
0.88218081 -1.9886296 -0.14365838 131
0.87774026 -2.0460167 -0.14789048 136
0.87698007 -2.1155553 -0.15320133 90
0.86945987 -2.172421 -0.15735044 101
0.8725121 -2.2600954 -0.16423796 106
0.88361126 -2.3752477 -0.17353195 93
0.88159907 -2.4619114 -0.18025351 92
0.90320772 -2.6233141 -0.19353065 233
0.87157309 -2.6360927 -0.19369662 185
0.84397566 -2.6617897 -0.19502433 1266
0.81124777 -2.671946 -0.19502433 407
0.7750659 -2.6702149 -0.19402854 496
0.73904908 -2.668 -0.19303276 449
0.70320392 -2.6653051 -0.19203697 456
0.66802108 -2.6640673 -0.19120716 428
0.63136238 -2.655582 -0.18979645 444
0.59610528 -2.6514621 -0.18880066 408
0.56187087 -2.6507781 -0.18813682 439
0.52910489 -2.656496 -0.18805383 370
0.49920353 -2.6774845 -0.18929856 355
0.47142348 -2.7128649 -0.19178802 448
0.43619594 -2.7066388 -0.19079223 358
0.40236312 -2.707845 -0.19046031 394
0.36870074 -2.7096162 -0.19021136 381
0.33493343 -2.7099805 -0.18987943 364
0.30154261 -2.7128961 -0.18979645 440
0.26764178 -2.7104416 -0.18929856 387
0.23350425 -2.7035935 -0.18846874 364
0.20001574 -2.7022798 -0.18813682 384
0.166962 -2.7065201 -0.18830277 433
0.13329519 -2.6994071 -0.18755594 433
0.099828169 -2.6918769 -0.18680909 404
0.06671349 -2.6899104 -0.18656015 385
0.033785496 -2.6975019 -0.18714103 430
0.00068066735 -2.6997066 -0.18730699 388
-0.032412574 -2.6965222 -0.18705805 447
-0.065354519 -2.6899438 -0.18656015 406
-0.098359354 -2.6889393 -0.18656015 421
-0.13139816 -2.6885252 -0.18664314 394
-0.16450259 -2.6886997 -0.18680909 421
-0.19821672 -2.6964169 -0.18763892 395
-0.23154715 -2.6967602 -0.18788786 430
-0.26452553 -2.6927238 -0.18780488 437
-0.29733002 -2.6872942 -0.18763892 340
-0.33211309 -2.6982789 -0.18888365 167
-0.12358218 -0.91353852 -0.039266858 67
-0.13303 -0.90012378 -0.038271073 83
-0.14280027 -0.89055222 -0.037607219 126
-0.1515045 -0.8759681 -0.03652845 115
-0.15950806 -0.85934699 -0.035283718 122
-0.16693257 -0.84168601 -0.033956002 131
-0.17436072 -0.82592463 -0.032794256 130
-0.18077289 -0.80719262 -0.031383555 152
-0.18721245 -0.79036933 -0.030138824 116
-0.19592924 -0.78414559 -0.029806893 136
-0.21315363 -0.81059223 -0.032296363 372
-0.22414753 -0.81175745 -0.032628287 312
-0.23353724 -0.80703139 -0.032462325 528
-0.24284482 -0.8021974 -0.032296363 646
-0.25176814 -0.79630673 -0.032047417 639
-0.26120862 -0.79221088 -0.031964432 606
-0.26831791 -0.78140682 -0.031300578 514
-0.27788678 -0.77805531 -0.031300578 513
-0.29053783 -0.78299391 -0.032047417 422
-0.30370998 -0.78866774 -0.032877233 393
-0.31965417 -0.80061221 -0.034287933 363
-0.33326751 -0.80583668 -0.035117757 210
-0.34273872 -0.80077022 -0.035034772 226
-0.34890589 -0.78830409 -0.034287933 197
-0.35440439 -0.77490234 -0.03345811 169
-0.36047909 -0.7632876 -0.032794256 171
-0.38467684 -0.78925765 -0.035615649 106
-0.39702109 -0.78981882 -0.036113542 72
-0.95180184 -1.8358256 -0.13469632 152
-0.95077479 -1.7800608 -0.13054721 234
-0.95909536 -1.7438124 -0.1282237 227
-0.95832276 -1.6928903 -0.12448952 252
-0.95945841 -1.6474218 -0.12125321 224
-0.963211 -1.6081693 -0.11859778 210
-0.95830685 -1.5563498 -0.11469762 228
-0.94908124 -1.4998468 -0.11029957 274
-0.9473111 -1.4571776 -0.10722923 261
-0.94353271 -1.4131252 -0.10399292 304
-0.94558316 -1.3792514 -0.1017524 274
-0.94866788 -1.3479879 -0.09976083 276
-0.94879508 -1.3136284 -0.097437337 277
-0.92151415 -1.2434497 -0.091379642 364
-0.93127376 -1.2249093 -0.090632796 334
-0.93152267 -1.1945322 -0.088641226 327
-0.93365878 -1.1674488 -0.086981595 344
-0.93464035 -1.1397247 -0.085238963 321
-0.9350841 -1.112155 -0.083496332 334
-0.93564469 -1.0855029 -0.0818367 359
-0.94097447 -1.0649799 -0.080840915 265
-0.93189019 -1.028983 -0.078102499 333
-0.9281711 -0.99994493 -0.076110929 375
-0.92250794 -0.96971214 -0.07395339 313
-0.91346163 -0.93691838 -0.071463928 326
-0.90163875 -0.90238166 -0.068725511 398
-0.91050494 -0.88916105 -0.068476573 328
-0.90907931 -0.86623776 -0.06706588 342
-0.90796006 -0.84416342 -0.065738156 374
-0.90865266 -0.82425654 -0.064659387 339
-0.91347378 -0.80842245 -0.064078525 368
-0.91578025 -0.79064178 -0.063248694 381
-0.92160141 -0.7761358 -0.062833786 619
-0.93259698 -0.76603246 -0.062999755 361
-0.94892895 -0.76013547 -0.063746586 149
-0.95661443 -0.74720699 -0.063580632 528
-0.95857447 -0.72998005 -0.062833786 365
-0.4752312 -0.35301667 -0.011799775 470
-0.46176031 -0.33431324 -0.0099741668 813
-0.46093988 -0.32517809 -0.0094762743 934
-0.46243057 -0.31780556 -0.009227328 955
-0.46712422 -0.31266063 -0.0093103088 947
-0.47176114 -0.30744827 -0.0093932897 904
-0.47802415 -0.30323565 -0.0096422359 923
-0.48086098 -0.29682386 -0.0095592551 977
-0.48446721 -0.29090059 -0.0095592551 2054
-0.48025209 -0.28041646 -0.0088124163 998
-0.47845489 -0.27155417 -0.0083145238 1058
-0.47825924 -0.26373985 -0.0079825968 1124
-0.47970209 -0.25691128 -0.0078166313 1138
-0.48193413 -0.25054622 -0.0077336468 1167
-0.48230216 -0.2432688 -0.0074847005 1300
-0.48166904 -0.2355831 -0.0071527734 1450
-0.48001957 -0.22752364 -0.0067378618 1504
-0.47733957 -0.21912538 -0.0062399693 1624
-0.47543758 -0.21123149 -0.0058250576 1807
-0.47799391 -0.20538121 -0.0058250576 1745
-0.47403371 -0.19682978 -0.0052441843 1976
-0.46993658 -0.18840688 -0.0046633109 2170
-0.4657051 -0.18011457 -0.0040824339 2370
-0.46601215 -0.17369145 -0.0039164685 2454
-0.466232 -0.16728802 -0.0037505068 2660
-0.46730748 -0.16122974 -0.0036675222 2640
-0.46735838 -0.15485761 -0.0035015605 2741
-0.45782369 -0.14549793 -0.0025057755 2880
-0.4576675 -0.13928999 -0.0023398101 2914
-0.45934233 -0.13366324 -0.0023398101 2830
-0.44173956 -0.12269837 -0.00068016723 3639
-0.44513923 -0.1177765 -0.00084613264 4597
-0.45138428 -0.11351633 -0.0012610406 4747
-0.44789553 -0.10681676 -0.00084613264 4915
-0.45306188 -0.10218616 -0.0011780597 5031
-0.45330682 -0.096412189 -0.0010950789 5089
-0.45250103 -0.090453118 -0.00092911348 5251
-0.44573939 -0.0834333 -0.00026525557 5479
-0.43887484 -0.076593272 0.00039860234 4978
-0.44666883 -0.072310761 -0.00018227473 5441
-0.43569359 -0.065068014 0.00081351027 4817
-0.45028383 -0.061595626 -0.00034824014 5825
-0.43814823 -0.05447806 0.00073052943 5412
-0.44472659 -0.049756903 0.00023263693 5937
-0.41753489 -0.041557632 0.0025561377 4140
-0.44084942 -0.038399734 0.00064754859 5502
-0.44625667 -0.033354037 0.00023263693 5903
-0.44961634 -0.028058926 -1.6309321e-05 6102
-0.42205715 -0.021167131 0.0023071915 3518
-0.45315713 -0.017126704 -0.00026525557 4887
-0.4742544 -0.012080349 -0.0020078793 2134
-0.45842335 -0.0060622022 -0.00068016723 1136
-0.44129735 0.00036005001 -0.0018693767 608
-0.45819092 0.0059820991 -0.0033835359 1362
-0.4511129 0.011433707 -0.0027600564 3054
-0.46586892 0.017517634 -0.0040960796 491
-0.48651028 0.0242582 -0.0059665106 201
-0.4692753 0.029189399 -0.0044523515 1318
-0.41027522 0.030626709 0.00080266967 4319
-0.40192962 0.034975979 0.0015152134 4450
-0.43318972 0.043027643 -0.0013349652 6167
-0.40491006 0.045268167 0.0011589415 4765
-0.40926677 0.050842926 0.00071360171 4416
-0.43822122 0.059880871 -0.0019584447 5490
-0.45223224 0.067445256 -0.0032944679 6299
-0.44547021 0.072040781 -0.0027600564 5919
-0.44749668 0.078012615 -0.0030272603 6139
-0.43769282 0.081857987 -0.0022256486 5496
-0.43958601 0.087805726 -0.0024928525 5468
-0.44237319 0.094018415 -0.0028491244 5387
-0.44896081 0.10118527 -0.0035616718 5296
-0.45059261 0.10737732 -0.0038288757 5212
-0.45697051 0.11483431 -0.0045414194 5383
-0.44782171 0.11840308 -0.0038288757 4732
-0.44825491 0.12442081 -0.0040070117 3981
-0.46774024 0.13601391 -0.0059665106 2828
-0.46794221 0.14232171 -0.0061446466 2567
-0.46805957 0.14865485 -0.0063227825 2739
-0.46525431 0.15407509 -0.0062337145 2476
-0.46332857 0.15977287 -0.0062337145 2439
-0.46508431 0.16678855 -0.0065899864 2267
-0.46767071 0.17421818 -0.0070353262 2012
-0.47386134 0.18316972 -0.0078369416 1807
-0.47157788 0.18897092 -0.0078369416 1797
-0.46922341 0.19474368 -0.0078369416 1700
-0.46679828 0.20048712 -0.0078369416 1722
-0.46339226 0.20579676 -0.0077478737 1578
-0.46988773 0.21561496 -0.0086385533 1428
-0.46810684 0.22179079 -0.0087276213 1345
-0.46534988 0.22751847 -0.0087276213 1381
-0.46608165 0.23500296 -0.0090838969 1319
-0.46581513 0.24208075 -0.0093511008 1207
-0.46456623 0.24871771 -0.0095292367 1205
-0.46322435 0.25536034 -0.0097073726 1225
-0.46178913 0.26200739 -0.0098855086 1104
-0.46112084 0.26915896 -0.010152712 1110
-0.46034619 0.27633336 -0.010419916 1034
-0.4586165 0.28300658 -0.010598052 904
-0.45763364 0.29021168 -0.01086526 991
-0.45654261 0.29743499 -0.011132464 928
-0.45617104 0.30522829 -0.011488736 877
-0.45567644 0.31305695 -0.011845008 945
-0.45505798 0.3209191 -0.012201279 918
-0.4551219 0.32939628 -0.012646619 833
-0.45344561 0.33673638 -0.012913827 808
-0.45165733 0.34408465 -0.013181031 825
-0.45211241 0.35327768 -0.013715439 780
-0.45163143 0.36191082 -0.014160778 780
-0.45100614 0.37058488 -0.014606118 843
-0.44947317 0.37865639 -0.014962394 841
-0.4470554 0.3860952 -0.015229598 897
-0.45571536 0.40342742 -0.016832825 2148
-0.45737284 0.41500896 -0.017634436 1310
-0.45078602 0.41923466 -0.017456301 1085
-0.44993591 0.42885545 -0.017990708 757
-0.44820395 0.43782231 -0.018436048 745
-0.44843224 0.44892353 -0.019148596 653
-0.44775897 0.45938253 -0.019772071 787
-0.44620904 0.46917063 -0.020306479 614
-0.44177389 0.47607031 -0.020484619 645
-0.44526362 0.49178723 -0.02173157 572
-0.45041224 0.50989825 -0.02324573 515
-0.45192865 0.52443701 -0.024314549 507
-0.45315483 0.53908831 -0.025383364 460
-0.45156062 0.55076778 -0.026095908 440
-0.44912484 0.56171083 -0.026719388 487
-0.44771352 0.57424659 -0.027521003 449
-0.44606134 0.58683115 -0.028322611 458
-0.44594702 0.60186052 -0.029391434 441
-0.45078164 0.62423885 -0.031261865 409
-0.44767591 0.63623804 -0.031974409 437
-0.44828764 0.6540029 -0.033310432 421
-0.44852951 0.67187679 -0.034646455 477
-0.44948536 0.6915229 -0.036160607 398
-0.44842649 0.70876718 -0.037407566 393
-0.45014626 0.73117542 -0.039188925 356
-0.44984567 0.75116718 -0.040703084 354
-0.45514002 0.78158563 -0.043286059 342
-0.46024433 0.81310993 -0.045958105 319
-0.46031842 0.83702034 -0.047828536 334
-0.45517761 0.85226834 -0.048808288 295
-0.45890644 0.88519645 -0.051569398 349
-0.47219485 0.93880212 -0.056379076 505
-0.4597649 0.94273579 -0.05620094 500
-0.44262454 0.93660206 -0.055043053 358
-0.43483117 0.950113 -0.055844668 1022
-0.43686455 0.98633617 -0.058872987 642
-0.42747521 0.99803096 -0.059496466 477
-0.41290832 0.99768049 -0.058962051 1446
-0.40063414 1.0026724 -0.058962051 565
-0.38543141 1.0000793 -0.058249507 1622
-0.3731299 1.0047337 -0.058249507 855
-0.35741606 0.99985909 -0.057358827 542
-0.34447116 1.0022862 -0.057180692 432
-0.33058313 1.0017093 -0.056735348 478
-0.31736311 1.0028422 -0.056468148 425
-0.30445445 1.0047549 -0.056290012 452
-0.29099175 1.004589 -0.05593374 448
-0.27757913 1.0042447 -0.055577468 451
-0.26396498 1.0027597 -0.055132125 493
-0.25018725 1.0001265 -0.054597717 439
-0.23697452 0.99924511 -0.054241445 470
-0.22469439 1.0020779 -0.054241445 494
-0.21155502 1.0008621 -0.053885173 472
-0.19847946 0.99947542 -0.053528894 486
-0.18583468 0.99987745 -0.053350758 463
-0.1730396 0.99913853 -0.053083558 464
-0.16044903 0.99922007 -0.052905422 530
-0.14788255 0.99914324 -0.052727286 537
-0.13520806 0.99792194 -0.052460078 586
-0.12307382 1.0004946 -0.05254915 565
-0.11078695 1.0019295 -0.05254915 599
-0.098483391 1.0032135 -0.05254915 576
-0.085651882 0.99839252 -0.052014742 889
-0.072953597 0.9934085 -0.051480327 766
-0.060329452 0.98726988 -0.050856855 625
-0.048111714 0.98594624 -0.050678719 699
-0.035862111 0.98248106 -0.050322447 684
-0.023827367 0.98384291 -0.050411511 583
-0.011752307 0.98406118 -0.050411511 604
0.00032354376 0.99907166 -0.051747534 495
0.012680926 1.0069602 -0.052460078 503
0.025353841 1.0196731 -0.053617965 452
0.038340636 1.0322248 -0.054775853 312
0.056031909 1.1341439 -0.063949868 183
0.086357601 1.4007986 -0.087909207 146
0.10720141 1.4493001 -0.092362612 197
0.12941884 1.499478 -0.096994147 665
0.14751729 1.4948033 -0.096726954 734
0.16650803 1.4988201 -0.097261354 605
0.18488832 1.496664 -0.097261354 683
0.2032408 1.4942825 -0.097261354 752
0.22170871 1.4926611 -0.097350433 679
0.24048375 1.4927783 -0.097617626 647
0.25963542 1.4946214 -0.098062977 656
0.27850389 1.4942605 -0.09833017 611
