# .PCD v0.7 - Point Cloud Data file format
VERSION 0.7
FIELDS x y z intensity
SIZE 4 4 4 4
TYPE F F F F
COUNT 1 1 1 1
WIDTH 1268
HEIGHT 1
VIEWPOINT 0 0 0 1 0 0 0
POINTS 1268
DATA ascii
-0.16534305 -0.82462943 -0.06281285 161
-0.18285833 -0.85750598 -0.067100346 261
-0.19445594 -0.86004102 -0.067695826 250
-0.21234128 -0.88850135 -0.071506932 403
-0.22540115 -0.89449656 -0.072578818 598
-0.23965259 -0.90414387 -0.074127078 707
-0.25258452 -0.90783298 -0.074960753 682
-0.26176924 -0.89799017 -0.074127078 565
-0.27219248 -0.89281011 -0.073888883 507
-0.28582817 -0.89792097 -0.074960753 541
-0.29682553 -0.89434576 -0.074960753 218
-0.3045468 -0.88124764 -0.073769778 159
-0.30596834 -0.85126984 -0.070435062 107
-0.31846818 -0.85303479 -0.071149647 127
-0.32605246 -0.84165204 -0.070196867 85
-0.33856916 -0.84311861 -0.070911452 76
-0.36257362 -0.87192112 -0.075198948 174
-0.38889921 -0.90390664 -0.079962835 285
-0.39955977 -0.89815849 -0.079843745 470
-0.40972427 -0.89138246 -0.07960555 629
-0.42530319 -0.89615977 -0.080915615 355
-0.43975347 -0.89801091 -0.081868395 125
-0.9423883 -1.8689121 -0.21299437 195
-1.1491246 -2.2114704 -0.26087141 116
-1.1686854 -2.183193 -0.25896585 128
-0.98515821 -1.7868618 -0.20668221 119
-0.95414323 -1.6813452 -0.19381972 155
-0.95170009 -1.6300535 -0.18834125 159
-0.95835686 -1.5961117 -0.18524472 188
-0.96067888 -1.5563388 -0.18131451 199
-0.95951521 -1.5125598 -0.17678882 226
-0.95688307 -1.4682163 -0.17214404 205
-0.94999993 -1.4192172 -0.16678466 180
-0.95105124 -1.3837121 -0.16333084 189
-0.9565233 -1.3557035 -0.1609489 211
-0.95272648 -1.3157024 -0.1567805 242
-0.94158775 -1.2672315 -0.15130202 297
-0.9432373 -1.2374095 -0.14856279 257
-0.94124395 -1.2038273 -0.14522807 241
-0.93981218 -1.1720339 -0.14213155 236
-0.94152409 -1.1450645 -0.1397496 236
-0.94527513 -1.1212703 -0.13784406 216
-0.9472881 -1.096055 -0.1357003 233
-0.95079982 -1.0731921 -0.13391384 234
-0.94455814 -1.0401119 -0.13046002 246
-0.94508511 -1.0153502 -0.12831628 303
-0.90817243 -0.95190918 -0.11974129 130
-0.89135128 -0.91156101 -0.1148583 268
-0.90317267 -0.90125614 -0.1149774 248
-0.9113214 -0.88733172 -0.11450101 242
-0.91782653 -0.87197447 -0.11378643 263
-0.91172445 -0.84510577 -0.11104719 186
-0.9146688 -0.82718718 -0.10985622 257
-0.91582388 -0.80800945 -0.10842705 151
-0.91890323 -0.79087436 -0.10735518 272
-0.92170084 -0.77378631 -0.10628331 325
-0.93266225 -0.76367688 -0.1065215 256
-0.92955911 -0.74224949 -0.10461594 105
-0.95034009 -0.73994744 -0.1064024 240
-0.44962823 -0.34053257 -0.029584739 231
-0.46573696 -0.34385934 -0.031371195 521
-0.46026427 -0.33114007 -0.029942032 706
-0.46429321 -0.32546699 -0.029942032 737
-0.4666146 -0.31862175 -0.029703837 818
-0.47296637 -0.31452614 -0.030061129 748
-0.47845513 -0.30978104 -0.030299317 851
-0.48473737 -0.30547956 -0.03065661 845
-0.48844957 -0.29950809 -0.03065661 887
-0.49123654 -0.29298118 -0.030537512 1794
-0.48621586 -0.28193265 -0.029346544 899
-0.48531914 -0.27349851 -0.028751057 901
-0.48689902 -0.26656508 -0.028512862 952
-0.48838213 -0.2596342 -0.028274667 1032
-0.49065003 -0.25316429 -0.028155569 1036
-0.49194595 -0.24623168 -0.027917374 1129
-0.48957649 -0.23756404 -0.027202796 1353
-0.48976201 -0.23026519 -0.026845504 1458
-0.49074534 -0.22341104 -0.026607309 1579
-0.48437235 -0.21334985 -0.025416333 1760
-0.486954 -0.20738977 -0.025416333 1803
-0.48579288 -0.1998792 -0.024939951 2142
-0.4808335 -0.19095448 -0.02398717 2246
-0.47665575 -0.18253918 -0.023153491 2482
-0.47606772 -0.17563875 -0.022796199 2786
-0.47912213 -0.17011778 -0.022915296 2716
-0.48117366 -0.16422541 -0.022915296 2695
-0.48032427 -0.15737438 -0.022558004 2891
-0.45571545 -0.14307627 -0.019223284 3876
-0.46028742 -0.1383374 -0.019580577 3049
-0.45050678 -0.12936185 -0.01815141 3201
-0.45588815 -0.12488237 -0.0186278 3864
-0.46122682 -0.12029015 -0.019104186 4528
-0.43184698 -0.1069058 -0.015293077 3495
-0.43312639 -0.10159832 -0.015293077 3635
-0.43918452 -0.097362511 -0.015888564 5025
-0.43840343 -0.091554731 -0.015650369 5051
-0.4385201 -0.085974403 -0.015531272 4760
-0.41709098 -0.076410085 -0.012792036 4046
-0.41506237 -0.0707772 -0.012434747 4493
-0.43844655 -0.069302708 -0.015173979 5441
-0.41274568 -0.059987597 -0.011958357 4091
-0.44099909 -0.058655292 -0.015293077 5567
-0.41606438 -0.050083023 -0.012196552 4344
-0.4166477 -0.0449735 -0.012196552 4091
-0.41716823 -0.039857209 -0.012196552 4091
-0.46115223 -0.038476475 -0.017436828 3365
-0.47149169 -0.03354343 -0.0186278 2167
-0.47186783 -0.027754975 -0.0186278 1070
-0.45828915 -0.021282403 -0.016960438 867
-0.45653138 -0.0155841 -0.016722243 1803
-0.43782914 -0.0095204981 -0.014459398 3312
-0.42500642 -0.0039905212 -0.012911133 4693
-0.48718929 -0.0013170353 -0.023542162 550
-0.48320076 0.0046142275 -0.023039445 908
-0.49104199 0.010735673 -0.024044883 212
-0.47897637 0.016326414 -0.022536729 83
-0.52531183 0.024475615 -0.028443668 42
-0.48932391 0.028741781 -0.023919202 71
-0.47904029 0.034017794 -0.022662405 141
-0.47265613 0.039385036 -0.021908328 407
-0.47509915 0.045473035 -0.022285368 465
-0.47844961 0.051735912 -0.022788085 509
-0.47876337 0.05772445 -0.022913765 525
-0.47900206 0.063728452 -0.023039445 501
-0.48014668 0.069892243 -0.023290806 497
-0.48121193 0.076093681 -0.023542162 533
-0.48121938 0.08216244 -0.023667842 523
-0.48212561 0.088424094 -0.023919202 495
-0.48003113 0.094140634 -0.023793522 539
-0.47786912 0.099819124 -0.023667842 584
-0.47757626 0.10589284 -0.023793522 543
-0.47720614 0.11197437 -0.023919202 536
-0.47868338 0.1185442 -0.024296239 514
-0.48103017 0.12541957 -0.024798956 494
-0.4823235 0.13210598 -0.025176 535
-0.48066601 0.13801488 -0.025176 558
-0.47798678 0.14361534 -0.025050316 565
-0.47240499 0.14827295 -0.024547603 469
-0.4724341 0.1546807 -0.024798956 471
-0.473315 0.16143379 -0.025176 490
-0.47410086 0.16823168 -0.025553036 488
-0.47386077 0.17472768 -0.025804397 476
-0.4726066 0.18088625 -0.025930073 492
-0.46943 0.18630417 -0.025804397 444
-0.46894175 0.19280946 -0.026055757 494
-0.4683643 0.19933073 -0.02630711 444
-0.46769714 0.20586672 -0.02655847 474
-0.4651356 0.21159059 -0.02655847 493
-0.46340099 0.21770646 -0.026684154 476
-0.46426129 0.22511609 -0.027186867 447
-0.46500897 0.23257937 -0.027689587 506
-0.46652359 0.24055123 -0.028317984 464
-0.46528667 0.24719281 -0.028569344 473
-0.46395677 0.25384015 -0.028820705 531
-0.46253353 0.26049191 -0.029072065 450
-0.46101663 0.26714683 -0.029323425 475
-0.45940581 0.27380359 -0.029574778 453
-0.45939031 0.28150117 -0.030077498 435
-0.46009293 0.28976986 -0.030705895 418
-0.4614929 0.29863846 -0.031459976 439
-0.4610936 0.30648279 -0.031962689 433
-0.46057084 0.3143619 -0.032465409 386
-0.4599236 0.32227409 -0.03296813 439
-0.46075949 0.33137915 -0.033722203 425
-0.45904937 0.33878055 -0.034099247 432
-0.45959577 0.34799099 -0.034853321 404
-0.45998454 0.35726529 -0.035607401 368
-0.45943946 0.36598137 -0.036235798 433
-0.45721498 0.37347919 -0.036612835 364
-0.45335671 0.37970027 -0.036738511 360
-0.44791165 0.38458729 -0.036612835 362
-0.44687548 0.39333954 -0.037241232 439
-0.45892671 0.41411161 -0.040131863 634
-0.45162919 0.41768727 -0.039754827 863
-0.45437554 0.43072018 -0.041137297 381
-0.45189685 0.43903407 -0.041640017 409
-0.44858035 0.44665033 -0.042017054 335
-0.44791701 0.45709026 -0.042896811 414
-0.45185438 0.47260842 -0.044656325 314
-0.44804707 0.48029763 -0.045033362 309
-0.4434523 0.48722941 -0.045284722 355
-0.44006947 0.49560648 -0.045787442 297
-0.4456228 0.51448733 -0.04804967 323
-0.45461106 0.53813052 -0.051065985 294
-0.4574174 0.55516887 -0.052951176 272
-0.46049267 0.57312983 -0.05496205 304
-0.45830968 0.58499277 -0.055967484 285
-0.45650512 0.59767681 -0.057098601 287
-0.45859617 0.61598015 -0.059109475 305
-0.458561 0.63201141 -0.060743306 319
-0.45934334 0.64975482 -0.062628493 350
-0.45975798 0.66761076 -0.064513698 322
-0.4603537 0.68639755 -0.066524565 319
-0.4594737 0.70363474 -0.068284079 295
-0.45823884 0.72095191 -0.070043594 304
-0.45612633 0.73749858 -0.071677431 293
-0.45418602 0.754951 -0.073436946 258
-0.44938582 0.76818037 -0.074568048 247
-0.44237164 0.77795237 -0.07519646 265
-0.4428432 0.80157065 -0.077835724 222
-0.45075524 0.84018612 -0.082611546 155
-0.49618629 0.95306945 -0.097944438 85
-0.48936301 0.96883261 -0.099326923 95
-0.47525996 0.97030789 -0.098698527 71
-0.46501482 0.97965372 -0.099201247 105
-0.45254451 0.9843846 -0.099075556 96
-0.43882123 0.98623651 -0.09857285 105
-0.4270767 0.992459 -0.098698527 211
-0.42398435 1.0196195 -0.10171483 302
-0.40922806 1.0192195 -0.10096076 324
-0.3938311 1.0167608 -0.09995532 417
-0.38201615 1.0233767 -0.10020667 766
-0.36441115 1.013978 -0.098321483 989
-0.35646313 1.0315056 -0.100081 692
-0.34035158 1.0254415 -0.098698527 869
-0.32744232 1.0285952 -0.09857285 600
-0.3150835 1.0334852 -0.098698527 1232
-0.30016434 1.0296522 -0.097693086 590
-0.28088355 1.009357 -0.094551101 360
-0.26771653 1.0098501 -0.094174057 319
-0.25409713 1.0082481 -0.09354566 288
-0.24124616 1.0093601 -0.093294308 314
-0.22840625 1.0103087 -0.09304294 332
-0.21537364 1.0101241 -0.092665911 360
-0.20238008 1.0097721 -0.092288867 319
-0.18942764 1.0092539 -0.091911823 334
-0.17668843 1.0095477 -0.09166047 317
-0.16365474 1.0077223 -0.091157749 326
-0.1504008 1.0037669 -0.090403676 374
-0.13780405 1.0035709 -0.090152308 356
-0.12535654 1.0042018 -0.090026632 365
-0.11313368 1.0066506 -0.090152308 381
-0.10047932 1.0050012 -0.089775279 338
-0.088224284 1.007147 -0.089900956 642
-0.075345255 1.0012283 -0.089021191 521
-0.062686019 0.99613637 -0.088267118 470
-0.050310165 0.9938581 -0.087890089 498
-0.03799969 0.99142641 -0.087513044 555
-0.025756486 0.9888429 -0.087136 462
-0.013719914 0.99702048 -0.088141441 434
-0.0014878035 1.0090185 -0.089649603 374
0.011024864 1.0198728 -0.091032073 344
0.02399586 1.0385045 -0.093419984 295
0.038583841 1.0886939 -0.099829644 225
0.052037593 1.0901202 -0.100081 182
0.072188303 1.2003046 -0.11415711 101
0.099264212 1.3675276 -0.13552263 82
0.12875743 1.5144725 -0.15437455 446
0.14723574 1.5117911 -0.15424888 465
0.16566762 1.5088842 -0.1541232 455
0.18417148 1.5067377 -0.1541232 441
0.20291398 1.5063304 -0.15437455 485
0.22181943 1.506671 -0.1547516 485
0.24123558 1.5097127 -0.15550567 483
0.26160607 1.5173913 -0.15688814 564
0.28075087 1.5169929 -0.15726519 532
0.29741335 1.5037026 -0.15600839 433
0.31892097 1.5144991 -0.15789358 510
0.33835039 1.5143436 -0.1583963 549
0.35736603 1.5120081 -0.15864766 482
0.37613451 1.5084713 -0.15877335 540
0.39487001 1.5047013 -0.15889902 561
0.41119099 1.4920926 -0.15789358 393
0.43223029 1.4964633 -0.15915038 525
0.45228773 1.4967432 -0.15990445 528
0.4733147 1.4995929 -0.16103557 559
0.49261403 1.4964979 -0.16141261 525
0.51223093 1.4940929 -0.16191533 532
0.53119504 1.489563 -0.16216668 492
0.55150634 1.4885124 -0.16292077 482
0.56973124 1.4816325 -0.16292077 531
0.59375936 1.4892696 -0.16493164 433
0.61805981 1.496538 -0.16694251 401
0.63911211 1.4952245 -0.16782227 418
0.66223347 1.4981542 -0.16933042 367
0.68593508 1.5016419 -0.17096426 370
0 0 0 350
0 0 0 394
0 0 0 358
0 0 0 365
0 0 0 394
0 0 0 387
0 0 0 370
0 0 0 364
0 0 0 358
0 0 0 377
0 0 0 402
0 0 0 372
0 0 0 335
0 0 0 359
0 0 0 343
0 0 0 354
1.1067102 1.4951912 -0.19748265 293
1.1417879 1.5036099 -0.20100166 290
1.1723554 1.505131 -0.20351526 299
1.2037501 1.5069008 -0.20615453 354
1.2435412 1.5180964 -0.21042763 364
1.29017 1.5361316 -0.21595752 374
1.3244696 1.5382175 -0.21897385 388
1.36164 1.5426639 -0.22249287 397
1.4310836 1.5817207 -0.23204452 1058
1.4578106 1.5720377 -0.23342699 1858
1.4838306 1.5612171 -0.23468378 938
1.4938735 1.533657 -0.23304996 361
1.5238018 1.5264369 -0.23506081 313
1.5693921 1.5339594 -0.23983663 94
1.60821 1.5337455 -0.24335566 152
1.5963922 1.4855264 -0.23807713 102
1.6894571 1.5338048 -0.25089645 241
1.7296985 1.5320218 -0.25454116 253
1.7708982 1.5301275 -0.25831154 279
1.8221742 1.5357566 -0.26371574 223
1.86235 1.5309094 -0.26723477 199
1.9042268 1.5265448 -0.27100515 225
1.9533104 1.5268759 -0.27590668 215
2.0058415 1.5286324 -0.28131089 198
2.061095 1.5310996 -0.28709215 172
2.0998247 1.5202267 -0.29023415 194
2.1548133 1.5200621 -0.29588971 166
2.2052011 1.5154039 -0.3007912 176
2.2607429 1.5130432 -0.30644679 184
2.3223729 1.5133325 -0.31298214 171
2.3818302 1.51074 -0.31914043 153
2.4508557 1.5126399 -0.3266812 178
2.5100703 1.5069449 -0.33271381 164
2.5729356 1.5020198 -0.33924916 136
2.654175 1.5060498 -0.34842375 141
2.7254636 1.5025629 -0.35609022 122
2.8154287 1.5073756 -0.36639595 134
2.8706937 1.4919139 -0.37167448 101
2.9632092 1.494066 -0.38223156 98
3.0508502 1.4915539 -0.39203456 92
3.1487291 1.4917797 -0.40322003 89
3.2335334 1.483621 -0.41252032 97
3.3231356 1.4756124 -0.42244902 91
3.4968939 1.5016108 -0.44394022 56
3.5553806 1.4753033 -0.4494701 105
3.6266363 1.4529454 -0.45675951 58
3.6830633 1.42334 -0.46203807 40
2.7304778 1.0171994 -0.33095431 49
2.7334151 0.98027033 -0.32969752 90
2.7546186 0.9498837 -0.33095431 112
3.3980811 1.1250272 -0.41528529 78
3.3936636 1.0775442 -0.41289738 153
3.4379566 1.0453314 -0.41704479 68
3.4571948 1.0049999 -0.41792455 43
3.406168 0.94501495 -0.4096297 18
3.4069569 0.90036017 -0.40824723 21
3.4100511 0.85655284 -0.40724179 37
3.4135497 0.81303501 -0.40636203 33
3.4193983 0.77021354 -0.40585932 26
3.4237399 0.72716528 -0.40523091 30
3.4469995 0.68800402 -0.40711612 31
3.5332029 0.66020477 -0.41717046 33
6.1086941 1.0631933 -0.74733067 55
6.130096 0.98957139 -0.74846178 27
3.9015033 0.58120853 -0.46153533 12
6.0552177 0.82558364 -0.73601949 114
6.0895076 0.75425869 -0.73916149 216
6.1022487 0.67991298 -0.7396642 282
6.0884128 0.60283142 -0.73689926 292
6.0943637 0.52798641 -0.73677355 334
6.1122561 0.45403907 -0.73828173 322
6.0906324 0.37734678 -0.73488837 408
6.0858874 0.30213594 -0.73375726 483
6.0841794 0.22724578 -0.73312885 485
6.0984116 0.15286247 -0.73463702 537
6.0730443 0.077676609 -0.73124367 530
6.0715561 0.003144515 -0.73099232 582
6.0721292 -0.071374901 -0.73111796 516
6.0688128 -0.14583585 -0.73086661 559
6.0665665 -0.22029853 -0.73086661 582
6.0683608 -0.29496983 -0.73149502 509
6.0652747 -0.36947626 -0.73162067 521
6.063252 -0.4440966 -0.73199773 459
6.0682182 -0.51940137 -0.7333802 491
6.0623746 -0.59392548 -0.7335059 525
6.0704069 -0.67001987 -0.73551679 490
6.0568042 -0.74385709 -0.73488837 464
6.0619664 -0.82012516 -0.73677355 375
6.048501 -0.89401734 -0.73639655 403
6.0527472 -0.97069097 -0.73840737 463
6.0540652 -1.0472643 -0.7401669 430
6.0524616 -1.1236534 -0.74167508 363
6.040163 -1.1982284 -0.74192643 349
6.0453877 -1.2765684 -0.74456567 317
6.0273314 -1.3502244 -0.74431431 281
6.0440931 -1.4320992 -0.74871314 352
6.0328012 -1.5078467 -0.7495929 368
6.0253558 -1.5847954 -0.75110102 402
6.0111918 -1.660202 -0.75185508 448
6.0189528 -1.7421237 -0.75562549 450
6.0189586 -1.8224709 -0.75851613 453
6.013166 -1.9015831 -0.76077837 222
5.1565609 -1.700407 -0.64967763 111
5.0987148 -1.7509834 -0.64477617 209
5.0740418 -1.8124189 -0.64439911 43
5.0644388 -1.8793837 -0.64615864 37
5.050251 -1.9449581 -0.6474154 34
5.0324521 -2.0093625 -0.64829516 39
5.0119987 -2.0728638 -0.64892358 41
5.9720068 -2.5564184 -0.78478312 88
5.9782834 -2.6463842 -0.79006171 631
5.9760294 -2.7335842 -0.79433477 693
5.9698396 -2.8198533 -0.79823083 267
5.935678 -2.8933349 -0.79835653 108
5.7915983 -2.9115748 -0.78302366 264
5.6101089 -2.9070883 -0.76228648 223
5.4234977 -2.8953261 -0.74066961 35
0 0 0 4
3.2036631 -1.8121381 -0.42810458 17
3.1220317 -1.8168663 -0.4194327 24
3.0416262 -1.8203787 -0.4108865 22
4.5464115 -2.7980049 -0.63811511 24
4.4279008 -2.8005378 -0.62554717 34
4.3266602 -2.8114057 -0.61549282 50
4.23243 -2.8246243 -0.60644388 42
3.2589335 -2.2329078 -0.46228942 85
3.1517806 -2.2167761 -0.44997284 44
3.1010175 -2.2384408 -0.44632813 38
3.081285 -2.2822332 -0.44758493 40
3.0980608 -2.3540993 -0.45474866 56
3.1440396 -2.4505093 -0.46681389 58
3.1687384 -2.5329022 -0.47573712 68
3.2156603 -2.6357663 -0.48855647 14
3.3030441 -2.7759087 -0.50841385 55
3.2627192 -2.8110509 -0.50740838 77
3.1915505 -2.8186889 -0.50125009 87
3.1037793 -2.8096902 -0.49220118 83
3.0196259 -2.8016691 -0.48365495 81
2.939738 -2.7954316 -0.47573712 59
2.6019218 -2.5355532 -0.42207196 33
2.5502603 -2.5469553 -0.41842726 16
2.5188134 -2.5780592 -0.41842726 14
2.4657733 -2.5865083 -0.4145312 14
2.4068298 -2.5875072 -0.40950403 18
0 0 0 6
0 0 0 5
0 0 0 6
0 0 0 7
2.1139319 -2.5722911 -0.38361403 32
2.1839128 -2.7250311 -0.40422547 43
1.9762843 -2.5287857 -0.3684068 25
1.8032749 -2.3665652 -0.33874643 148
1.7758715 -2.3909061 -0.33912349 95
1.7376764 -2.400461 -0.33723828 70
1.7035161 -2.415117 -0.33623284 29
1.3048362 -1.8985012 -0.25366139 57
1.2687575 -1.8954024 -0.25077075 31
1.2394483 -1.901684 -0.24938828 20
1.2096461 -1.9066948 -0.24788013 25
1.1783463 -1.9087291 -0.24599493 26
1.1476903 -1.9111347 -0.24423543 31
1.1111556 -1.9027939 -0.24096775 14
1.0779364 -1.8990257 -0.23845416 25
1.0454571 -1.8956002 -0.23606625 16
1.0108857 -1.8872923 -0.23304996 26
0.98079199 -1.8863485 -0.23116475 20
0.95266008 -1.8884963 -0.22978228 28
0.92375302 -1.8884565 -0.22814843 24
0.90772492 -1.9148937 -0.23028499 100
0.89573377 -1.9511397 -0.23380402 81
0.89465535 -2.0136743 -0.24096775 65
0.88435018 -2.0582342 -0.2456179 68
0.87688357 -2.1120038 -0.25152484 71
0.87191445 -2.1751037 -0.25868857 66
0.87017107 -2.250423 -0.26748613 61
0.86151713 -2.3120706 -0.27439851 58
0.87121546 -2.4289412 -0.28872597 58
0.85975611 -2.4929156 -0.29588971 50
0.8540197 -2.5786304 -0.30594409 69
0.86550021 -2.7250898 -0.32404193 144
0.83718324 -2.7525921 -0.32630417 313
0.79836249 -2.7455094 -0.32404193 286
0.76222652 -2.7464952 -0.32291082 329
0.72669327 -2.7489276 -0.32203105 327
0.68952584 -2.7441666 -0.32027155 316
0.65442157 -2.7466307 -0.31951746 315
0.6193608 -2.7486472 -0.31876341 304
0.58373195 -2.7473063 -0.31763229 324
0.54493397 -2.7289662 -0.31436461 308
0.51049471 -2.7305715 -0.3137362 283
0.47456902 -2.7229471 -0.3119767 288
0.43874973 -2.7138743 -0.3100915 247
0.40497562 -2.7161102 -0.30971447 275
0.37094516 -2.71596 -0.30908605 205
0.33612704 -2.708493 -0.30757791 214
0.30187732 -2.7035401 -0.30644679 262
0.26848286 -2.7050662 -0.30619544 263
0.23501101 -2.7051921 -0.30581841 206
0.20201635 -2.7108405 -0.30619544 278
0.16812338 -2.7032135 -0.30493864 229
0.13479111 -2.7021005 -0.30456161 256
0.10158519 -2.7025597 -0.30443594 251
0.068363637 -2.7016196 -0.30418456 240
0.035205465 -2.702255 -0.30418456 250
0.0020432873 -2.7064519 -0.30468729 263
-0.031192891 -2.7082572 -0.30493864 290
-0.064352952 -2.7046947 -0.30456161 293
-0.097611256 -2.7056847 -0.30481297 239
-0.13046834 -2.6973467 -0.3039332 250
-0.054458734 -0.91016901 -0.077333003 147
-0.065478481 -0.90745342 -0.07708165 189
-0.076609403 -0.90658152 -0.07708165 259
-0.087631866 -0.90458578 -0.076955959 330
-0.097417623 -0.89160949 -0.075447813 233
-0.10653494 -0.87557721 -0.073562622 172
-0.11727159 -0.87420392 -0.073562622 190
-0.1242142 -0.84718311 -0.070294946 102
-0.13397199 -0.84167695 -0.069792226 102
-0.14378271 -0.83703691 -0.069415197 104
-0.15404361 -0.83520949 -0.069415197 107
-0.16312197 -0.82741779 -0.068661124 75
-0.17305823 -0.82438314 -0.068535432 80
-0.18337868 -0.82316542 -0.068661124 92
-0.20308059 -0.86139566 -0.073939651 192
-0.22158033 -0.89059854 -0.078087077 356
-0.23880593 -0.91179711 -0.081229076 547
-0.24997711 -0.90879798 -0.081229076 625
-0.26221463 -0.90947354 -0.081731781 584
-0.27278021 -0.90428841 -0.081480429 603
-0.28295875 -0.89803529 -0.081103384 669
-0.29302505 -0.89166909 -0.080726355 251
-0.30330029 -0.88612962 -0.080474988 188
-0.30146295 -0.84684181 -0.075699165 79
-0.3139044 -0.84865874 -0.076453254 90
-0.33107314 -0.86233121 -0.078841165 162
-0.33610925 -0.84438461 -0.076955959 100
-0.34796327 -0.84386313 -0.07745868 66
-0.35985485 -0.84317738 -0.0779614 98
-0.39427871 -0.89312351 -0.085502177 391
-0.40438333 -0.88641363 -0.08525081 617
-0.42031699 -0.89214796 -0.086758971 374
-0.43384245 -0.89227307 -0.087513044 296
-0.45278299 -0.90283513 -0.089775279 75
-1.1500962 -2.2209792 -0.27867162 120
-1.1674495 -2.1883221 -0.27603236 148
-1.1746145 -2.1381903 -0.27087948 164
-1.1777958 -2.0830376 -0.26497254 137
-1.0919331 -1.8772527 -0.23694602 134
-0.95482677 -1.596468 -0.19748265 165
-0.95197934 -1.5483052 -0.19207841 197
-0.95446289 -1.5105182 -0.18818235 204
-0.95183897 -1.4662534 -0.18328086 249
-0.94992822 -1.4247603 -0.17875639 239
-0.95051134 -1.388449 -0.174986 233
-0.95377475 -1.3572092 -0.1719697 223
-0.95118862 -1.3188635 -0.16782227 244
-0.94426358 -1.2760073 -0.16292077 266
-0.94003618 -1.2382629 -0.15877335 303
-0.94234866 -1.2102057 -0.15613407 299
-0.94039828 -1.1776322 -0.15274072 280
-0.93905097 -1.1468264 -0.14959873 268
-0.94028401 -1.1200302 -0.14708515 220
-0.94553703 -1.0986387 -0.14545131 211
-0.94055402 -1.0661372 -0.14193228 241
-0.93958044 -1.0390737 -0.13929302 299
-0.93471169 -1.0085616 -0.13602534 230
-0.90530372 -0.95317298 -0.12835889 111
-0.89684689 -0.92139351 -0.12471418 187
-0.90528119 -0.90751147 -0.12421148 186
-0.90428245 -0.8845517 -0.12207492 219
-0.90788639 -0.86654514 -0.12081812 205
-0.91045904 -0.84790891 -0.11943565 168
-0.91638649 -0.83267349 -0.11868156 224
-0.92356378 -0.8187356 -0.11817884 223
-0.92528039 -0.80020982 -0.11679637 244
-0.92592388 -0.78112721 -0.11528823 289
-0.93543977 -0.76970595 -0.11528823 244
-0.93707138 -0.75196707 -0.11403142 120
-0.94466478 -0.73918998 -0.11378007 218
-0.949718 -0.72453696 -0.11315167 214
-0.46063432 -0.34330502 -0.03460196 196
-0.4664202 -0.33878928 -0.034853321 490
-0.46892074 -0.33189708 -0.03460196 393
-0.46723324 -0.32218713 -0.033722203 669
-0.47362587 -0.31808349 -0.034099247 527
-0.47666219 -0.31170613 -0.033973563 481
-0.48380333 -0.30795741 -0.034476284 292
-0.48247942 -0.29887298 -0.033722203 364
-0.48781222 -0.29395029 -0.033973563 1324
-0.48538399 -0.28444317 -0.033093806 602
-0.48020777 -0.27357265 -0.031837013 510
-0.4809218 -0.26622322 -0.031459976 465
-0.48152828 -0.25889766 -0.031082932 506
-0.48202771 -0.25159755 -0.030705895 456
-0.4850789 -0.24566339 -0.030705895 394
-0.48003438 -0.23577337 -0.029574778 474
-0.47840816 -0.22774255 -0.028946381 484
-0.48206869 -0.22226803 -0.029072065 463
-0.48385313 -0.21593323 -0.028946381 441
-0.48464313 -0.20919703 -0.028695021 429
-0.48534095 -0.20247406 -0.028443668 446
-0.48594704 -0.19576558 -0.028192308 461
-0.48646182 -0.18907285 -0.027940948 463
-0.48688582 -0.18239704 -0.027689587 428
-0.48535156 -0.17507038 -0.027186867 444
-0.48371139 -0.16780904 -0.026684154 467
-0.48385048 -0.16123751 -0.026432794 447
-0.48390135 -0.15468794 -0.026181433 443
-0.48386464 -0.14816149 -0.025930073 482
-0.48278823 -0.14138269 -0.025553036 434
-0.48161873 -0.13465276 -0.025176 455
-0.48035717 -0.12797295 -0.024798956 487
-0.47996691 -0.12158585 -0.024547603 484
-0.48045766 -0.11545723 -0.024421919 453
-0.48087043 -0.10933489 -0.024296239 483
-0.4831464 -0.10363143 -0.024421919 474
-0.48632765 -0.098082401 -0.024673279 517
-0.4884699 -0.092288926 -0.024798956 480
-0.48663345 -0.085777931 -0.024421919 521
-0.48373175 -0.079168044 -0.023919202 522
-0.48172298 -0.072788298 -0.023542162 541
-0.48159686 -0.066737495 -0.023416482 570
-0.48139504 -0.060700778 -0.023290806 604
-0.48308969 -0.054898422 -0.023416482 543
-0.48273972 -0.048868466 -0.023290806 527
-0.48033789 -0.042684507 -0.022913765 675
-0.47488937 -0.036346979 -0.022159688 911
-0.48124072 -0.030883569 -0.022913765 1010
-0.48158354 -0.02497568 -0.022913765 1007
-0.48185372 -0.019064028 -0.022913765 674
-0.50287849 -0.013667601 -0.025553036 353
-0.47225657 -0.007108015 -0.021656971 230
-0.46506631 -0.00035849432 -0.023365766 1968
-0.48585206 0.0056054424 -0.026124984 762
-0.47682738 0.011347633 -0.024942465 194
-0.47665226 0.017198183 -0.024942465 80
-0.47838557 0.02314356 -0.025205247 95
-0.48103389 0.029194903 -0.02559942 232
-0.4766849 0.034803767 -0.025073856 1291
-0.45449314 0.038778201 -0.022183243 5076
-0.45595619 0.044547081 -0.022446025 5188
-0.45044875 0.049592353 -0.02178907 5503
-0.44980624 0.055116314 -0.02178907 5626
-0.45106065 0.060898934 -0.022051852 4973
-0.43262872 0.063810155 -0.019686807 3475
-0.46704742 0.074785993 -0.024416894 5296
-0.4446066 0.076781787 -0.021526288 4325
-0.4485037 0.083139598 -0.022183243 5037
-0.43869928 0.086896002 -0.021000721 4199
-0.43953952 0.092683733 -0.021263503 3712
-0.45384476 0.10154682 -0.023365766 4860
-0.44967094 0.10642119 -0.022971593 4542
-0.44929275 0.11217227 -0.023102984 4716
-0.45363384 0.11919365 -0.02389133 4202
-0.45213699 0.12475146 -0.02389133 4404
-0.44866788 0.12973815 -0.023628548 4226
-0.46980903 0.14214215 -0.026781939 2739
-0.47653455 0.15059176 -0.027964465 2506
-0.47465068 0.15642823 -0.027964465 2488
-0.4745701 0.16288626 -0.028227247 2386
-0.47253549 0.16869771 -0.028227247 2380
-0.46950054 0.17413829 -0.028095856 2302
-0.47102776 0.18131401 -0.02862142 2080
-0.47889209 0.19113034 -0.030066721 1745
-0.47651052 0.19699268 -0.030066721 1519
-0.47405726 0.20282535 -0.030066721 1562
-0.47243884 0.20902929 -0.030198112 1567
-0.47164071 0.21563686 -0.030460902 1456
-0.47523183 0.22437574 -0.031380638 1287
-0.47511518 0.23149528 -0.031774811 1242
-0.47489497 0.23864555 -0.032168984 1211
-0.47457042 0.24582508 -0.032563157 1160
-0.47326651 0.252565 -0.032825939 1147
-0.4718684 0.25930983 -0.033088721 1104
-0.47210076 0.26703557 -0.033614293 1006
-0.46964476 0.27330813 -0.033745684 1049
-0.46880627 0.28057989 -0.034139857 985
-0.46785963 0.28787205 -0.03453403 956
-0.46680421 0.29518297 -0.034928203 923
-0.46730134 0.30359238 -0.035585158 911
-0.46518904 0.31040564 -0.03584794 915
-0.46461451 0.3183344 -0.036373511 798
-0.46148354 0.32458282 -0.036504902 870
-0.46067923 0.33254457 -0.037030466 851
-0.46134093 0.34171629 -0.037818812 772
-0.46263507 0.35155416 -0.038738549 685
-0.45984912 0.35842481 -0.039001338 747
-0.45851177 0.36651886 -0.039526902 705
-0.45627826 0.37400472 -0.039921075 745
-0.45468828 0.38212901 -0.040446639 781
-0.45221654 0.38962263 -0.040840812 725
-0.46819398 0.41353092 -0.044519775 1845
-0.46675649 0.42257413 -0.04517673 1096
-0.45935696 0.42624587 -0.044782557 1004
-0.45839918 0.43595248 -0.045570903 619
-0.45727175 0.44569913 -0.046359248 625
-0.45597351 0.45548311 -0.047147594 586
-0.45381105 0.46459219 -0.047804557 603
-0.45491078 0.47730628 -0.049118467 505
-0.45441648 0.48866358 -0.050169602 486
-0.45703954 0.50375259 -0.051877685 458
-0.45607629 0.51526469 -0.05292882 432
-0.45943081 0.53208297 -0.054899685 461
-0.45733413 0.54299086 -0.055819429 432
-0.45629594 0.55545932 -0.057001948 491
-0.45625857 0.56953102 -0.058447249 450
-0.45777303 0.58602887 -0.060286731 485
-0.45834982 0.60185903 -0.061994821 568
-0.45624393 0.61460489 -0.06317734 483
-0.4573774 0.63220942 -0.065148212 476
-0.45871699 0.65074313 -0.067250475 447
-0.45686537 0.66531551 -0.068695776 430
-0.45527494 0.68076348 -0.070272475 450
-0.45012987 0.69128513 -0.071060821 393
-0.44691589 0.70513248 -0.072374731 391
-0.44290906 0.71815979 -0.073557258 338
-0.43661076 0.72779256 -0.074214213 352
-0.43762907 0.7502259 -0.07684204 274
-0.45477241 0.80211896 -0.083937176 171
-0.5137192 0.93270421 -0.10285752 106
-0.51344889 0.95992136 -0.10601092 88
-0.50254351 0.96790987 -0.1062737 94
-0.49062794 0.97400391 -0.1062737 104
-0.4790732 0.98084229 -0.10640509 108
-0.46572933 0.9839589 -0.10601092 117
-0.45238128 0.98689604 -0.10561674 114
-0.43903148 0.98965424 -0.10522258 174
-0.43505466 1.0141019 -0.10798179 332
-0.42219806 1.0184485 -0.1078504 350
-0.40893224 1.0217118 -0.10758761 369
-0.39493662 1.0229534 -0.10706205 482
-0.3809723 1.0240059 -0.10653649 731
-0.36503842 1.0192699 -0.10522258 1255
-0.3547599 1.0302347 -0.1061423 721
-0.34115794 1.0316867 -0.10574814 821
-0.32607725 1.028235 -0.10469701 538
-0.30681744 1.0103399 -0.101675 401
-0.29384384 1.0121247 -0.10141221 397
-0.28113705 1.0146989 -0.10128083 410
-0.26790616 1.0151966 -0.10088665 371
-0.25470555 1.015523 -0.10049248 395
-0.2406214 1.0118204 -0.09957274 387
-0.227101 1.0098608 -0.098915778 417
-0.21428086 1.0106319 -0.098652996 420
-0.20166937 1.0122131 -0.098521613 425
-0.18832582 1.0097387 -0.09786465 387
-0.17507353 1.0070899 -0.097207703 426
-0.16207212 1.0052475 -0.096682139 461
-0.14957859 1.0061802 -0.09655074 472
-0.13721995 1.0079399 -0.09655074 492
-0.12471937 1.008564 -0.096419357 526
-0.11211494 1.0080479 -0.09615656 505
-0.099639095 1.0083612 -0.096025176 510
-0.086832501 1.0045698 -0.095368214 797
-0.074498348 1.0055597 -0.095368214 648
-0.061970804 1.0034297 -0.094974048 571
-0.049263887 0.99619353 -0.093922921 677
-0.036816817 0.99077904 -0.09313456 688
-0.024607133 0.98917425 -0.092871778 569
-0.012527092 0.99435794 -0.09352874 527
-0.00032287385 1.0093069 -0.095499612 435
0.012185198 1.0191474 -0.096813522 437
0.024959113 1.0298222 -0.098258831 363
0.039678257 1.0859059 -0.10574814 227
0.053731613 1.1001892 -0.10771901 171
0.073374815 1.1993827 -0.12098952 104
0.10341578 1.4060063 -0.14858171 114
0.13130163 1.5280899 -0.16500562 452
0.14907143 1.5164982 -0.16369173 430
0.16843529 1.5214515 -0.16461146 492
0.18575761 1.5084475 -0.16316614 470
0.20652372 1.5227537 -0.16539979 530
0.22679545 1.5308911 -0.16684511 513
0.24635249 1.5328864 -0.16750208 501
0.2666707 1.5385383 -0.16868457 566
0.28680149 1.5419719 -0.16960433 575
0.30647609 1.5422256 -0.1701299 521
0.32599464 1.5412579 -0.17052406 529
0.34531823 1.5390757 -0.17078686 523
0.36417904 1.5347223 -0.17078686 506
0.38250315 1.5282146 -0.17052406 531
0.40021703 1.5195712 -0.1699985 560
0.41618973 1.5049915 -0.16868457 467
0.43545547 1.5026271 -0.16907877 606
0.45299873 1.4943244 -0.16868457 528
0.47160172 1.4895979 -0.16881597 541
0.48984587 1.4836985 -0.16881597 510
0.50737113 1.4757009 -0.1685532 530
0.52611011 1.4712303 -0.16881597 503
0.54516119 1.4674509 -0.16921017 475
0.56419849 1.463425 -0.16960433 505
0.57990551 1.4508687 -0.16881597 537
0 0 0 429
0 0 0 376
0 0 0 413
0 0 0 452
0 0 0 461
0 0 0 440
0 0 0 428
0 0 0 426
0 0 0 502
0 0 0 476
0 0 0 402
0 0 0 469
0 0 0 434
0 0 0 448
0 0 0 440
0 0 0 452
1.0303113 1.5424514 -0.20757642 453
1.0615014 1.5476747 -0.21046704 477
1.0884058 1.5458784 -0.21230653 436
1.1212327 1.5516869 -0.21545991 469
1.1496392 1.5505501 -0.21756217 454
1.1781855 1.5489479 -0.21966442 458
1.2086939 1.549221 -0.22216088 454
1.2375259 1.5466547 -0.22426313 461
1.2696204 1.5474434 -0.22702235 505
1.3038336 1.5499507 -0.23017573 516
1.360314 1.5773687 -0.23779643 1332
1.3743147 1.5546161 -0.2367453 496
1.3932886 1.537634 -0.2367453 444
1.4262226 1.5356719 -0.23950452 390
1.4620506 1.5360023 -0.2427893 726
1.4987912 1.5363917 -0.24620548 257
1.5266454 1.5269957 -0.24791357 209
1.5644275 1.5268377 -0.25146115 208
1.6081768 1.5314479 -0.25605983 302
1.6515447 1.5345359 -0.26052713 215
1.6959615 1.5374526 -0.26512584 283
1.7325251 1.5322837 -0.26827922 232
1.7767215 1.5329213 -0.27274653 263
1.8234663 1.5346162 -0.27760801 219
1.8582544 1.5253296 -0.28036723 250
1.9008269 1.5216122 -0.28444037 257
1.9513998 1.5231754 -0.28982741 216
2.0007148 1.5225221 -0.29495168 236
2.0463214 1.5179321 -0.29941899 228
2.0993438 1.5176749 -0.30506879 194
2.155905 1.5186242 -0.31124419 169
2.2046254 1.5128024 -0.31610566 195
2.2584686 1.5093144 -0.3217555 211
2.3275106 1.5144589 -0.32977039 167
2.3810978 1.5080556 -0.33528882 163
2.4450011 1.5068016 -0.34238395 166
2.5100758 1.5047117 -0.34961048 178
2.5660386 1.495757 -0.35539168 139
2.646306 1.4993322 -0.36485186 121
2.7235641 1.4992453 -0.37378648 120
2.8178217 1.506361 -0.38521752 116
2.8836136 1.4963191 -0.39231265 104
2.9619732 1.4911245 -0.40124726 114
3.0557761 1.4916185 -0.41241553 111
3.1464412 1.4883341 -0.42305821 103
3.2383759 1.4834566 -0.43383232 81
3.3424361 1.4817637 -0.44631448 91
3.4441955 1.4765627 -0.45840248 91
3.5508976 1.4709787 -0.47114748 93
3.4002335 1.359942 -0.44710284 120
3.4166663 1.3181134 -0.44710284 77
2.7003467 1.0039607 -0.34356648 115
2.7152636 0.97174948 -0.34396064 97
2.7410455 0.94319224 -0.3459315 149
2.742059 0.90606445 -0.34448621 72
3.3918326 1.0746913 -0.43330675 82
3.4104571 1.0347135 -0.43409508 85
3.3886216 0.98284656 -0.42936501 68
3.3908734 0.93854564 -0.42805108 59
3.3820045 0.89155918 -0.42529187 64
3.412885 0.85504675 -0.42805108 37
3.4173336 0.81172699 -0.42726275 18
3.4241357 0.76907861 -0.42686856 28
3.411979 0.72248566 -0.42397797 53
3.4419787 0.68481445 -0.42686856 38
3.5134716 0.65431482 -0.43540901 12
3.6013298 0.62504196 -0.44618309 27
0 0 0 12
4.2157183 0.62545389 -0.52659458 59
5.9411554 0.80690199 -0.75639802 99
5.8492694 0.72144181 -0.74286473 27
5.9246826 0.65703368 -0.75179935 78
6.0704179 0.59787369 -0.77019411 155
6.0960636 0.52495003 -0.77269059 314
6.1109447 0.45075819 -0.77387309 285
6.0902901 0.37415475 -0.77045691 386
6.0785804 0.29861209 -0.76835465 439
6.0857496 0.22414178 -0.76888025 498
6.0939884 0.14958897 -0.76966858 558
6.0735569 0.074528888 -0.76677799 625
6.0799627 -8.9998066e-06 -0.76756632 631
6.0824785 -0.074656181 -0.76796049 630
6.0721846 -0.14907239 -0.76677799 600
6.0669265 -0.22346655 -0.76638377 567
6.0696683 -0.2981925 -0.76717216 541
6.0645623 -0.37259334 -0.76704073 578
6.0664544 -0.44749773 -0.76796049 599
6.0624809 -0.52207899 -0.76822329 536
6.0704165 -0.59789419 -0.77019411 473
6.0675483 -0.67288911 -0.77085108 442
6.0588336 -0.74729663 -0.77085108 424
6.0639424 -0.82359368 -0.77282196 458
6.0553398 -0.89823663 -0.77308476 413
6.0624566 -0.97547072 -0.77558118 368
6.0500302 -1.049793 -0.77558118 389
6.0513101 -1.1266799 -0.77755207 344
6.044807 -1.2024016 -0.7786032 333
6.041234 -1.2789546 -0.78017986 365
6.0424943 -1.3569044 -0.78254491 357
6.036962 -1.4337023 -0.78412163 436
6.0333381 -1.5112911 -0.78609252 411
6.0267992 -1.5885011 -0.78780055 433
6.0087633 -1.6628686 -0.78806335 446
6.0193238 -1.7455938 -0.79239929 502
6.0297022 -1.8291147 -0.7968666 478
6.0115275 -1.9044679 -0.79752356 321
5.152792 -1.702217 -0.68097943 25
5.1080809 -1.7572577 -0.67769462 30
5.0543976 -1.8084525 -0.67322731 76
5.0559831 -1.8793235 -0.67664349 43
5.0427141 -1.9451518 -0.67808878 39
5.0239868 -2.0090961 -0.67887717 67
5.0126915 -2.0762882 -0.680848 53
5.0041461 -2.1450675 -0.68334448 42
4.9964776 -2.214752 -0.6861037 64
5.9936547 -2.7453425 -0.83549565 315
5.9622016 -2.8199589 -0.83588982 255
5.9485283 -2.9033487 -0.8390432 101
5.781405 -2.9101536 -0.8195973 226
5.6053514 -2.9082813 -0.79870605 180
5.4284868 -2.9016023 -0.77755207 32
5.3177848 -2.9268866 -0.7662524 64
0 0 0 6
0 0 0 9
0 0 0 7
2.9068475 -1.7909524 -0.41425499 26
2.8268635 -1.7898905 -0.40518901 27
2.7772658 -1.8066041 -0.4008531 42
4.2261286 -2.8237412 -0.63538665 24
3.1939261 -2.1911154 -0.47508919 48
3.1335685 -2.2067389 -0.46970212 40
3.064476 -2.2148263 -0.46286982 75
3.1142976 -2.3095522 -0.47561479 39
3.1298997 -2.3812132 -0.48297268 45
3.1692126 -2.4731181 -0.49453509 27
3.178869 -2.5440366 -0.50136745 61
3.2171409 -2.6400886 -0.51332408 75
3.3308897 -2.802561 -0.53868258 99
3.266223 -2.8173227 -0.53342694 124
3.1794224 -2.8112216 -0.52422953 146
3.100616 -2.8100791 -0.5163461 128
3.0281332 -2.8128297 -0.50951374 105
2.9574909 -2.8155975 -0.50294417 97
2.8354504 -2.7665174 -0.48678303 33
2.7157743 -2.7155795 -0.47075325 12
2.6801684 -2.7465732 -0.47035909 19
2.6414773 -2.77423 -0.46943939 23
2.592392 -2.7904563 -0.46654874 15
0 0 0 11
2.1757758 -2.4603562 -0.39704275 21
2.1104567 -2.4463341 -0.38994759 15
2.0707042 -2.4606698 -0.38797674 13
2.0063949 -2.4445124 -0.38088161 11
1.9855366 -2.4805598 -0.38285246 13
1.9860489 -2.5445979 -0.38955343 23
1.7926166 -2.3557544 -0.35407776 123
1.7305058 -2.3329833 -0.34671986 90
1.6825843 -2.327529 -0.34238395 95
1.6287814 -2.3123381 -0.33660272 109
1.303073 -1.8988888 -0.2669653 50
1.2637023 -1.8908319 -0.26315495 25
1.238782 -1.9037042 -0.26276079 21
1.2079031 -1.9070367 -0.2609213 17
1.1786901 -1.9124317 -0.25947601 21
1.1490178 -1.9165483 -0.25789931 30
1.1164281 -1.9150869 -0.25553426 30
1.081606 -1.9088037 -0.25251228 31
1.0480636 -1.9036944 -0.24975306 18
1.0152783 -1.8989261 -0.24712521 33
0.98687786 -1.9015625 -0.24567991 21
0.95990318 -1.9064456 -0.24462879 24
0.92991453 -1.9047179 -0.24265793 24
0.90774202 -1.9186746 -0.2430521 107
0.89774966 -1.9594128 -0.24738801 82
0.88649058 -1.999284 -0.25159252 85
0.88258684 -2.0583041 -0.25855628 67
0.87736511 -2.1175222 -0.26552001 70
0.87192386 -2.1796763 -0.27287793 56
0.8686533 -2.2512574 -0.28154975 54
0.87722194 -2.3593173 -0.29534584 69
0.85755289 -2.3960397 -0.29902479 45
0.87870651 -2.5535593 -0.31965324 78
0.88803226 -2.6874626 -0.33686551 132
0.86785716 -2.7387955 -0.34251532 244
0.83475786 -2.7511363 -0.34277812 283
0.79679376 -2.7468913 -0.34080726 310
0.76064616 -2.7478635 -0.33962473 290
0.72484756 -2.7493219 -0.3385736 294
0.68792409 -2.7455087 -0.33686551 271
0.6521197 -2.7450631 -0.33568299 328
0.6170817 -2.7470555 -0.33489463 291
0.58127207 -2.7447226 -0.33358073 285
0.54406631 -2.7341478 -0.33121568 264
0.50793368 -2.726974 -0.32937619 259
0.47290656 -2.724211 -0.32819366 245
0.43849614 -2.7239368 -0.32740533 209
0.40329152 -2.7173452 -0.32582864 238
0.36924839 -2.7171781 -0.32517168 229
0.33466378 -2.7116661 -0.32385775 243
0.30027026 -2.7057157 -0.32254386 225
0.26723856 -2.7111697 -0.32280663 226
0.23394822 -2.7142451 -0.32280663 223
0.20040406 -2.7139456 -0.32241246 238
0.16635597 -2.7043271 -0.32083577 234
0.13296288 -2.7022042 -0.32031021 274
0.099829108 -2.704623 -0.32044157 252
0.066558905 -2.7026715 -0.32004741 272
0.033424266 -2.7062583 -0.32044157 255
0.0002115356 -2.7104301 -0.32096717 257
-0.032976247 -2.7042811 -0.32017881 280
-0.066135064 -2.7026815 -0.32004741 259
-0.099296138 -2.7016666 -0.32004741 261
-0.13219874 -2.6952939 -0.31939045 200
-0.054936096 -0.89957589 -0.081177957 258
-0.066044129 -0.89982271 -0.081309348 334
-0.077081367 -0.8989445 -0.081309348 422
-0.0878153 -0.89497125 -0.080915175 454
-0.098135367 -0.88791448 -0.080126822 353
-0.10865982 -0.88369173 -0.079732649 241
-0.11936241 -0.88130957 -0.079601258 238
-0.12551174 -0.84839952 -0.075396739 123
-0.13528326 -0.84288043 -0.074871168 159
-0.14561653 -0.84115684 -0.074871168 118
-0.15610935 -0.84028113 -0.075002559 132
-0.16466798 -0.8295517 -0.07382004 105
-0.1803807 -0.85365367 -0.077367604 161
-0.19410175 -0.86588436 -0.079338476 308
-0.20860787 -0.87983358 -0.08157213 345
-0.2275809 -0.90990198 -0.086039431 605
-0.23721336 -0.90128922 -0.085251085 808
-0.24931356 -0.90213197 -0.085776649 954
-0.26064149 -0.8999567 -0.08590804 940
-0.26936308 -0.88910151 -0.084856912 785
-0.28324795 -0.89517921 -0.086170822 657
-0.2923457 -0.8859883 -0.085382476 274
-0.30287355 -0.88139665 -0.085251085 211
-0.30565014 -0.85521293 -0.082097694 94
-0.31612191 -0.85139775 -0.082097694 118
-0.32975757 -0.85577828 -0.083280213 169
-0.33692104 -0.84338325 -0.082097694 94
-0.35673094 -0.86208135 -0.085382476 207
-0.38095537 -0.88952798 -0.089981176 402
-0.39545867 -0.89294243 -0.091163702 597
-0.40679953 -0.88892365 -0.091295086 746
-0.41174266 -0.87131882 -0.089455612 483
-0.42849228 -0.87867248 -0.091295086 368
-0.45350736 -0.90168256 -0.095499612 68
-1.1572061 -2.2308798 -0.29482028 133
-1.1648659 -2.1797926 -0.28930184 160
-1.1719271 -2.1297278 -0.2839148 174
-1.1725624 -2.0703354 -0.27708244 153
-1.1664289 -2.0018339 -0.26880479 199
-1.1618537 -1.9389045 -0.26131549 242
-1.1382307 -1.8477021 -0.24935886 137
-0.9550184 -1.5086473 -0.19837904 195
-0.945346 -1.4536062 -0.19154668 237
-0.94824094 -1.4196419 -0.1879991 241
-0.94932526 -1.3841939 -0.18418875 224
-0.95253903 -1.352989 -0.18103537 226
-0.95222819 -1.3178996 -0.17722502 236
-0.94647741 -1.2766554 -0.17236355 263
-0.94286269 -1.2396998 -0.16815901 287
-0.94214606 -1.2077178 -0.16474286 271
-0.9395498 -1.1743953 -0.16106388 287
-0.940054 -1.1459192 -0.15817329 288
-0.93872625 -1.1160933 -0.15501988 310
-0.93551517 -1.0849739 -0.1516037 293
-0.93890822 -1.062273 -0.14963284 272
-0.93855745 -1.0359815 -0.14700502 255
-0.93028271 -1.0018719 -0.14293188 239
-0.90149063 -0.94730508 -0.13504839 180
-0.89712322 -0.91985303 -0.1320264 247
-0.91184872 -0.91227937 -0.13268337 271
-0.91729856 -0.89548272 -0.13163224 318
-0.90739608 -0.86433661 -0.12782189 264
-0.90631294 -0.84234196 -0.12571961 221
-0.91805065 -0.83248806 -0.1259824 264
-0.92299867 -0.81656307 -0.12506267 242
-0.92694414 -0.7999953 -0.12401152 249
-0.92607152 -0.77962524 -0.12217205 456
-0.92943817 -0.76317149 -0.12112092 474
-0.92247921 -0.73870116 -0.1183617 174
-0.50162125 -0.3919096 -0.046096466 119
-0.44643059 -0.34010845 -0.036110729 187
-0.46012604 -0.34169027 -0.037687421 745
-0.46669483 -0.33776006 -0.038081594 866
-0.46837294 -0.33029526 -0.037687421 973
-0.47566083 -0.32676587 -0.038212985 1216
-0.47633776 -0.31870139 -0.037687421 926
-0.48187482 -0.31391305 -0.037950203 874
-0.48736587 -0.30903667 -0.038212985 940
-0.48774549 -0.30095273 -0.037687421 801
-0.48885095 -0.2934159 -0.037293248 1850
-0.48556265 -0.28340194 -0.03624212 978
-0.48555356 -0.27546772 -0.035716549 980
-0.48455492 -0.26709875 -0.035059594 1031
-0.48517317 -0.25973064 -0.034665421 1021
-0.48392406 -0.25147483 -0.034008466 1092
-0.48431709 -0.24418043 -0.033614293 1176
-0.48549524 -0.23734921 -0.033351511 1369
-0.48568282 -0.23010221 -0.03295733 1452
-0.47945684 -0.2199972 -0.03164342 1630
-0.4794015 -0.21289195 -0.031249247 1779
-0.48015556 -0.20621188 -0.030986466 1821
-0.47349101 -0.19651106 -0.029672548 2033
-0.47954878 -0.19215794 -0.030198112 2234
-0.47539625 -0.18376167 -0.029278375 2366
-0.46739388 -0.17411527 -0.027833074 2510
-0.47509578 -0.17036998 -0.02862142 2651
-0.47527581 -0.16388214 -0.028358638 2655
-0.46595535 -0.15430662 -0.026781939 2861
-0.47253916 -0.15007365 -0.027438894 2832
-0.44683397 -0.13592009 -0.023628548 4286
-0.45132464 -0.13125464 -0.024022721 4016
-0.46150032 -0.12808536 -0.025205247 4469
-0.45153403 -0.11938126 -0.023628548 4020
-0.45584995 -0.1145537 -0.024022721 4478
-0.46011493 -0.10963807 -0.024416894 4629
-0.45078588 -0.10159498 -0.022971593 4394
-0.45393834 -0.09646599 -0.023234375 4841
-0.45508796 -0.09088821 -0.023234375 5123
-0.45421985 -0.084933951 -0.022971593 5055
-0.44155344 -0.076981768 -0.021132112 3894
-0.45812494 -0.074076094 -0.023234375 5377
-0.45801887 -0.06830322 -0.023102984 5159
-0.43033528 -0.058810346 -0.019292634 3288
-0.43102452 -0.053525042 -0.019292634 3305
-0.44150189 -0.049323697 -0.020606548 4367
-0.43615454 -0.04331946 -0.019818198 4023
-0.46134531 -0.040088631 -0.023102984 4806
-0.47663227 -0.03551713 -0.025073856 2561
-0.47703224 -0.029665446 -0.025073856 1435
-0.47934064 -0.023906447 -0.025336638 919
-0.47761658 -0.017949553 -0.025073856 803
-0.45500714 -0.011529049 -0.022051852 1982
-0.42537659 -0.0055815349 -0.018110111 4368
-0.48748729 0.00043935163 -0.029187944 1286
-0.4854643 0.0063970112 -0.028913405 344
-0.47643715 0.012134171 -0.027677957 192
-0.47724226 0.018016441 -0.027815226 144
-0.47599587 0.023822868 -0.027677957 134
-0.49247494 0.030696696 -0.030011576 509
-0.47032869 0.035132337 -0.026991602 2189
-0.42841348 0.037327457 -0.02122619 4100
-0.45256701 0.045011856 -0.024657983 5060
-0.42933741 0.048048574 -0.021500733 3392
-0.42871544 0.053313587 -0.021500733 3798
-0.43391794 0.059371058 -0.022324361 4493
-0.43511629 0.064982325 -0.022598904 4483
-0.43624201 0.070631891 -0.02287345 4492
-0.43436643 0.075810492 -0.022736177 3558
-0.43827233 0.082042195 -0.023422536 4174
-0.43723255 0.087414294 -0.023422536 3910
-0.44678628 0.095031045 -0.024932522 4590
-0.44268712 0.099855244 -0.024520706 3630
-0.44721064 0.10665404 -0.025344338 2904
-0.45643723 0.1147826 -0.026854325 4130
-0.4521209 0.11961748 -0.026442509 3860
-0.47066605 0.13070682 -0.029325213 2674
-0.47092927 0.13702475 -0.02959976 2640
-0.48058647 0.14624514 -0.031247023 2466
-0.47875562 0.15213166 -0.031247023 2414
-0.47779322 0.15830608 -0.031384293 2331
-0.47487795 0.16383509 -0.031247023 2271
-0.47096649 0.16898263 -0.030972477 2042
-0.47628477 0.17751116 -0.032070648 1909
-0.47869119 0.18512549 -0.03275701 1714
-0.47914243 0.19208954 -0.033168826 1660
-0.47583401 0.19757572 -0.033031549 1597
-0.47428399 0.20379043 -0.033168826 1589
-0.47627503 0.21160279 -0.033855181 1414
-0.47544348 0.21825665 -0.034129728 1331
-0.47452012 0.22492185 -0.034404267 1220
-0.47617486 0.23290081 -0.035090629 1139
-0.47416568 0.23917213 -0.035227899 1173
-0.47383252 0.24634168 -0.035639714 1071
-0.47252086 0.25307184 -0.035914253 1103
-0.47285059 0.26076218 -0.036463346 1035
-0.47220045 0.26801014 -0.036875155 959
-0.46973175 0.27428347 -0.037012432 980
-0.46802959 0.28104579 -0.037286971 941
-0.4670752 0.28832722 -0.037698787 894
-0.46601218 0.29562733 -0.038110603 964
-0.46400976 0.30240425 -0.038385149 841
-0.46191093 0.30917642 -0.038659688 821
-0.46053228 0.31650287 -0.039071504 805
-0.45904297 0.32384184 -0.03948332 789
-0.45904797 0.33235231 -0.040169675 794
-0.45891261 0.34091124 -0.040856037 734
-0.45863575 0.34951645 -0.041542392 764
-0.45821619 0.35816574 -0.042228755 764
-0.45687959 0.36623794 -0.04277784 782
-0.45464775 0.37370238 -0.043189656 679
-0.45078543 0.37989128 -0.043326925 663
-0.45358935 0.39186519 -0.044699643 810
-0.46655378 0.41315138 -0.047994163 1943
-0.46365023 0.42084146 -0.048405979 1122
-0.44901755 0.41773435 -0.046621446 882
-0.46179041 0.44029033 -0.050053235 631
-0.45847923 0.4479996 -0.050465051 562
-0.45714912 0.45779505 -0.051288683 588
-0.45218852 0.46407953 -0.051425952 631
-0.45602059 0.47963816 -0.053347755 502
-0.45010033 0.48519808 -0.053347755 564
-0.45541939 0.50316316 -0.055681374 502
-0.45970753 0.52058786 -0.057877723 434
-0.46104741 0.53519124 -0.059524979 434
-0.46018395 0.54763067 -0.060760427 453
-0.4590838 0.56012845 -0.061995875 447
-0.458983 0.57422751 -0.063505858 439
-0.45860437 0.5884071 -0.065015852 477
-0.4567464 0.6010859 -0.066251293 512
-0.45700541 0.61698931 -0.068035826 474
-0.45694169 0.63298804 -0.069820359 459
-0.45598277 0.64826667 -0.071467623 504
-0.45583725 0.66524929 -0.073389426 426
-0.45369175 0.67985326 -0.074899405 380
-0.4496353 0.69201237 -0.075997576 382
-0.44693768 0.70668405 -0.07750757 371
-0.44342721 0.72054893 -0.078880295 288
-0.45542645 0.76077247 -0.084508419 206
-0.51487392 0.88441104 -0.10345191 122
-0.53229409 0.94065315 -0.11141367 75
-0.52691853 0.95839614 -0.11319821 109
-0.51791894 0.9700318 -0.11402184 113
-0.50734437 0.97895229 -0.11443365 110
-0.49573821 0.98598927 -0.11457092 116
-0.48142946 0.98754746 -0.11388455 149
-0.4705447 0.9960674 -0.11429638 311
-0.45374969 0.99186003 -0.11278638 1210
-0.4439517 1.0027871 -0.11361001 289
-0.43161255 1.0081596 -0.11361001 347
-0.41958734 1.0142953 -0.11374728 351
-0.40784419 1.0212075 -0.11402184 414
-0.39349973 1.0215147 -0.11333548 442
-0.38162458 1.0281235 -0.11361001 701
-0.36397523 1.0187392 -0.11155094 1371
-0.35047996 1.020319 -0.11113912 502
-0.33482653 1.0151373 -0.10976641 474
-0.31875554 1.0078379 -0.10811915 393
-0.30578893 1.0097778 -0.10784461 386
-0.29337436 1.0134543 -0.10784461 376
-0.2798593 1.0131594 -0.10729551 411
-0.26690051 1.0146018 -0.10702097 407
-0.25322682 1.0129963 -0.10633461 353
-0.23940414 1.0102448 -0.10551098 364
-0.22612116 1.0092407 -0.1049619 381
-0.21289901 1.0080633 -0.10441281 404
-0.20012623 1.008657 -0.10413827 418
-0.18718979 1.0081154 -0.10372646 446
-0.17429686 1.0074086 -0.10331464 459
-0.16129228 1.0055597 -0.10276556 428
-0.1486499 1.0055038 -0.10249101 470
-0.13629963 1.0072521 -0.10249101 452
-0.12392884 1.008849 -0.10249101 519
-0.11132123 1.0083247 -0.10221647 529
-0.098842174 1.0086292 -0.1020792 535
-0.085948035 1.0038449 -0.10125557 765
-0.073404558 1.0018604 -0.10084376 579
-0.060801502 0.99774235 -0.1001574 545
-0.048262119 0.99247724 -0.099333763 615
-0.036006562 0.99101502 -0.099059224 649
-0.02374577 0.98742139 -0.098510131 541
-0.011735227 0.99655253 -0.099745572 517
0.00049607811 1.0075173 -0.10125557 461
0.01308057 1.0252635 -0.10372646 388
0.026002984 1.0388892 -0.10564826 314
0.040249031 1.0790761 -0.1112764 200
