# .PCD v0.7 - Point Cloud Data file format
VERSION 0.7
FIELDS x y z intensity
SIZE 4 4 4 4
TYPE F F F F
COUNT 1 1 1 1
WIDTH 1310
HEIGHT 1
VIEWPOINT 0 0 0 1 0 0 0
POINTS 1310
DATA ascii
-0.51402009 -0.85662764 -0.12412238 59
-1.1428006 -1.8534591 -0.31625471 185
-1.1475033 -1.8109468 -0.31078359 177
-1.1507992 -1.7677753 -0.30515158 173
-1.1449848 -1.7124915 -0.29710585 224
-1.150277 -1.6755258 -0.29260021 209
-1.1446056 -1.624168 -0.28519815 190
-1.1436334 -1.5812057 -0.27940521 242
-1.1470746 -1.5456502 -0.2750605 218
-1.1444383 -1.5031831 -0.26926759 197
-1.1464013 -1.4680197 -0.26492289 173
-1.1304059 -1.4114639 -0.25607255 233
-1.1169573 -1.3601052 -0.24818771 239
-1.1068718 -1.3145807 -0.24142928 188
-0.98107702 -1.136499 -0.20602803 199
-0.9426406 -1.0652299 -0.19315484 235
-0.93310356 -1.0287205 -0.18768375 279
-0.93692368 -1.0077929 -0.18559185 270
-0.93016255 -0.97620696 -0.18108624 159
-0.93242121 -0.95483035 -0.17883343 167
-0.9349947 -0.93424463 -0.17674154 245
-0.93932408 -0.91580844 -0.17513239 165
-0.38358939 -0.36459452 -0.04752693 197
-0.4075605 -0.37799448 -0.051871631 266
-0.42240751 -0.38224283 -0.054124434 305
-0.43224257 -0.38160637 -0.055250842 282
-0.43838775 -0.37756252 -0.05557267 319
-0.45280641 -0.38041401 -0.057664562 946
-0.45438859 -0.37232459 -0.057020906 1273
-0.44196948 -0.35315463 -0.053480778 599
0 0 0 9
-0.4018003 -0.30515462 -0.043504056 242
-0.43722698 -0.32371497 -0.049940649 868
-0.46036553 -0.33219895 -0.053802606 1256
-0.46602145 -0.32766098 -0.054124434 1382
-0.4610543 -0.31577653 -0.052354377 1164
-0.46243256 -0.30845016 -0.051871631 848
-0.46866497 -0.30436662 -0.052354377 840
-0.47403255 -0.29964831 -0.052676205 937
-0.47935462 -0.29484397 -0.052998032 847
-0.48632312 -0.2909686 -0.053641696 1653
-0.47962394 -0.27901614 -0.051710714 889
-0.48129418 -0.27213663 -0.051388886 893
-0.48113865 -0.26430669 -0.050745223 942
-0.479123 -0.25559154 -0.049779739 980
-0.47784281 -0.2474205 -0.048975166 925
-0.47819814 -0.24020703 -0.04849242 1021
-0.47844887 -0.23302232 -0.048009675 1142
-0.47859558 -0.22586781 -0.04752693 1255
-0.47863922 -0.21874498 -0.047044184 1270
-0.47858047 -0.21165527 -0.046561439 1457
-0.48023459 -0.20537767 -0.046400528 1500
-0.47815934 -0.19758099 -0.045595948 1657
-0.47504929 -0.18950011 -0.044630464 1932
-0.47365549 -0.18223582 -0.043986801 2054
-0.47215548 -0.17503452 -0.043343145 2223
-0.47333857 -0.16889486 -0.043182228 2305
-0.47350886 -0.16243163 -0.0428604 2425
-0.467969 -0.15413278 -0.041573081 2554
-0.46888432 -0.1480805 -0.041412164 2636
-0.46783268 -0.14145623 -0.040929418 2625
-0.4685854 -0.13542975 -0.040768508 2717
-0.45689458 -0.12598543 -0.038515698 4098
-0.46508706 -0.12212922 -0.039642099 2754
-0.45697656 -0.11401561 -0.038032953 4742
-0.46218246 -0.10931098 -0.038676616 4974
-0.45578498 -0.10190193 -0.037389297 5134
-0.44637966 -0.094053701 -0.035619233 4470
-0.45524442 -0.090108395 -0.036906552 4993
-0.44855344 -0.083070673 -0.035619233 5598
-0.44175941 -0.076210953 -0.034331914 5288
-0.45045698 -0.072037593 -0.035619233 4960
-0.44252035 -0.065201961 -0.034170996 5134
-0.4354631 -0.058704887 -0.032883678 5238
-0.44692588 -0.054684464 -0.034653742 5999
-0.46325874 -0.050934736 -0.037228379 5717
-0.46581337 -0.045439273 -0.037550207 2923
-0.47321931 -0.040311605 -0.038676616 1368
-0.48155278 -0.035081428 -0.039963935 644
-0.46914047 -0.028384011 -0.037872043 392
-0.44185147 -0.021271819 -0.033366423 1024
-0.43122989 -0.015449598 -0.031596359 2799
-0.4205336 -0.0098913303 -0.029826295 5526
-0.40878057 -0.0045859432 -0.02789532 3657
-0.47245714 0.001232506 -0.041145992 583
-0.47142056 0.0070179394 -0.040979054 159
-0.46834195 0.012729424 -0.040478226 198
-0.48785633 0.019204564 -0.043817047 83
-0.46099508 0.023879571 -0.039309647 151
-0.49019036 0.031353205 -0.044317868 667
-0.46715319 0.03569454 -0.040478226 2230
-0.4038116 0.036000967 -0.029794019 4090
-0.40137699 0.040760063 -0.029460136 4089
-0.41456574 0.047206055 -0.031797308 4545
-0.41786939 0.05277323 -0.032465067 4742
-0.43770686 0.06068683 -0.035970826 5937
-0.41547316 0.062867545 -0.032298129 4690
-0.42635146 0.069842637 -0.034301419 5448
-0.43420511 0.076587766 -0.035803888 5871
-0.40415409 0.076491788 -0.03079566 4140
-0.4312278 0.087028131 -0.035636943 5794
-0.44941849 0.096400447 -0.038975764 5620
-0.44435376 0.10104355 -0.038307998 5334
-0.45171362 0.10854051 -0.039810468 4805
-0.44365299 0.11239754 -0.038641881 3317
-0.4479605 0.11934199 -0.039643522 3232
-0.4702175 0.13140805 -0.043817047 2912
-0.46762264 0.13689369 -0.043650102 2746
-0.47345525 0.14491266 -0.044985633 2500
-0.4716413 0.15071177 -0.044985633 2506
-0.47443712 0.15803531 -0.045820337 2240
-0.47432664 0.16448727 -0.04615422 2008
-0.47598553 0.17162481 -0.046821978 1738
-0.47846422 0.17917131 -0.047656689 1482
-0.47622949 0.18502931 -0.047656689 1440
-0.47392306 0.19085944 -0.047656689 1403
-0.47245607 0.19703831 -0.047823627 1374
-0.47634563 0.20554142 -0.048992213 1165
-0.47739276 0.21297023 -0.049659979 1107
-0.47563967 0.21922323 -0.049826916 997
-0.47291365 0.22504357 -0.049826916 1049
-0.47188842 0.2316952 -0.050160799 1025
-0.47077087 0.23835541 -0.050494682 951
-0.47043577 0.24547718 -0.050995503 976
-0.47086585 0.25309131 -0.051663268 911
-0.46858826 0.25932604 -0.051830206 848
-0.46622849 0.26554295 -0.051997144 839
-0.46378654 0.27174091 -0.052164089 823
-0.46041691 0.27741179 -0.052164089 808
-0.46117461 0.28562775 -0.052998792 759
-0.46013355 0.29284841 -0.053499613 722
-0.45898435 0.30008629 -0.054000434 723
-0.45690674 0.30679193 -0.054334316 735
-0.45554629 0.31404954 -0.054835144 741
-0.45568824 0.32245538 -0.055669848 766
-0.4548929 0.33033392 -0.056337606 716
-0.45476419 0.33882856 -0.05717231 676
-0.45527944 0.34796649 -0.058173958 632
-0.45330665 0.35534742 -0.058674779 673
-0.45352998 0.36458072 -0.059676427 667
-0.45207015 0.37262118 -0.060344186 669
-0.44897211 0.37941056 -0.060678069 654
-0.45025423 0.39004451 -0.0620136 750
-0.45281914 0.40207282 -0.063683003 1783
-0.44565964 0.40561259 -0.06318219 1137
-0.45148265 0.42111835 -0.0656863 616
-0.44842282 0.42866695 -0.066187114 520
-0.44947886 0.44033569 -0.067689583 558
-0.44613269 0.44791016 -0.068190411 519
-0.44542179 0.45829171 -0.06935899 616
-0.44656187 0.4708651 -0.071028396 506
-0.44678846 0.48281196 -0.072530866 499
-0.45009828 0.49848753 -0.074868038 493
-0.45961937 0.52170271 -0.078874618 408
-0.45640212 0.53103715 -0.079709321 415
-0.45937133 0.54791582 -0.082213432 446
-0.45824134 0.56037205 -0.083715901 442
-0.45687398 0.572882 -0.08521837 417
-0.45830017 0.58932877 -0.087555543 501
-0.45640573 0.60197127 -0.089058012 543
-0.44957146 0.60831875 -0.089224949 426
-0.43803042 0.60819566 -0.088056371 328
-0.50886339 0.72478056 -0.11109421 64
-0.5356217 0.78300911 -0.12177841 52
-0.54075909 0.81165993 -0.12628582 48
-0.54849714 0.84551072 -0.13179487 64
-0.54757267 0.86717337 -0.13479979 59
-0.55291992 0.89985168 -0.13997497 88
-0.5428493 0.90826064 -0.14030884 62
-0.53761876 0.92507696 -0.14231214 64
-0.53545731 0.94790578 -0.14548402 86
-0.52378476 0.95440531 -0.14548402 78
-0.51807368 0.9720661 -0.14765425 110
-0.50973749 0.98535252 -0.14898977 131
-0.49361882 0.9836067 -0.1474873 172
-0.47762033 0.98161495 -0.14598483 390
-0.45795289 0.97135758 -0.14297991 530
-0.44640884 0.97780067 -0.14314684 483
-0.43317783 0.98050082 -0.14264601 917
-0.41839471 0.97939885 -0.14147744 235
-0.41200206 0.998124 -0.14398155 326
-0.39972255 1.0031047 -0.14398155 382
-0.38631865 1.0051746 -0.14348072 391
-0.37292439 1.007067 -0.14297991 380
-0.35887796 1.0069256 -0.1421452 418
-0.34425017 1.004727 -0.14097661 408
-0.32942161 1.0013858 -0.13964108 355
-0.31591776 1.001593 -0.13897333 363
-0.30102828 0.99690241 -0.13747086 279
-0.28822315 0.99862742 -0.13713697 357
-0.27410698 0.99543715 -0.13596839 339
-0.26161966 0.9977724 -0.13580145 351
-0.24600381 0.98751742 -0.13346428 265
-0.23523296 0.99621785 -0.13446592 343
-0.22234248 0.99614334 -0.13396509 317
-0.21010152 0.99879688 -0.13396509 326
-0.19744453 0.99936581 -0.13363121 368
-0.18480524 0.99977475 -0.13329732 302
-0.17235415 1.0009959 -0.13313039 346
-0.15990092 1.0020622 -0.13296345 361
-0.14730299 1.0019982 -0.13262957 379
-0.1348633 1.0027535 -0.13246262 359
-0.12230673 1.0023758 -0.13212875 389
-0.10967125 1.0008613 -0.13162792 390
-0.096994922 0.99820685 -0.13096017 511
-0.084400311 0.9953925 -0.1302924 610
-0.07188943 0.99242008 -0.12962463 495
-0.059343632 0.98732281 -0.12862299 488
-0.047078509 0.98502237 -0.12812217 524
-0.034878802 0.98256999 -0.12762134 518
-0.022938764 0.98785239 -0.12845604 391
-0.01089821 0.99496073 -0.12962463 375
0.0013159236 1.0186827 -0.13363121 290
0.014208626 1.0501385 -0.13897333 225
0.027678709 1.073541 -0.14297991 186
0.041178595 1.0819882 -0.14448237 192
0.060567867 1.2054826 -0.16551691 132
0.093115315 1.4929905 -0.21443059 184
0.11499103 1.5399164 -0.22261067 243
0.13726923 1.577682 -0.22928832 402
0.15700665 1.5798036 -0.22995608 398
0.17649028 1.5787377 -0.23012303 434
0.19609222 1.5784103 -0.2304569 429
0.21584551 1.5788159 -0.23095773 464
0.2356382 1.5789741 -0.23145853 475
0.25578082 1.5808307 -0.23229323 429
0.27617303 1.5834013 -0.23329489 451
0.29630548 1.5837702 -0.23396267 416
0.31629595 1.5829159 -0.23446347 462
0.33590132 1.5798798 -0.23463042 433
0.35526359 1.5756387 -0.23463042 459
0.37457234 1.5711604 -0.23463042 462
0.3768048 1.4985424 -0.22277762 337
0.32828423 1.2402097 -0.17837135 328
0.34190008 1.2303865 -0.17736971 357
0.35614884 1.2232574 -0.17686889 365
0.37113327 1.2187948 -0.17686889 414
0.38516808 1.2113291 -0.17636807 350
0.40093222 1.2093197 -0.17686889 439
0.41574225 1.2043085 -0.17686889 401
0.43082193 1.2000444 -0.17703582 407
0.44620323 1.1965154 -0.17736971 402
0.46191764 1.1937093 -0.17787054 426
0.47799653 1.1916127 -0.17853829 424
0.49371582 1.1883897 -0.17903912 407
0 0 0 167
0 0 0 132
0 0 0 325
0 0 0 446
0 0 0 407
0 0 0 439
0 0 0 414
0.81470788 1.5211908 -0.25332782 408
0 0 0 382
0.8658917 1.5256149 -0.25816908 372
0.89348698 1.5302062 -0.26117402 364
0.91371864 1.5216633 -0.26167485 424
0.9659512 1.5648923 -0.272526 710
0.97980595 1.5445917 -0.27085659 333
1.0046026 1.5415417 -0.27269295 308
1.0278271 1.5356554 -0.27402848 348
1.0588688 1.5408112 -0.27770117 288
1.0850792 1.5381798 -0.2798714 327
1.1165826 1.5423262 -0.28354409 267
1.1442373 1.5403855 -0.2860482 293
1.1708167 1.5364275 -0.28821844 281
1.2005037 1.5359335 -0.29122338 272
1.2309697 1.53571 -0.29439527 292
1.2603577 1.5334435 -0.29723325 293
1.2930487 1.5344568 -0.30090594 321
1.3240197 1.5326568 -0.30407783 326
1.3649381 1.5414035 -0.30975381 430
1.3910354 1.5325725 -0.31159016 303
1.4204761 1.5269432 -0.31426123 319
1.4601864 1.5315301 -0.31943637 772
1.4706063 1.5050292 -0.31743309 221
1.5077915 1.5056905 -0.32194048 154
1.5565042 1.5166782 -0.32911894 203
1.5899968 1.5117381 -0.3326247 144
1.651777 1.5323689 -0.34264114 223
1.6879928 1.5278723 -0.34664774 206
1.725822 1.5240211 -0.35098821 198
1.7645545 1.520113 -0.3554956 203
1.8087296 1.5199239 -0.3611716 185
1.8516376 1.5176256 -0.3665137 141
1.8978372 1.5169638 -0.37252358 166
1.9435179 1.5147871 -0.3783665 147
1.9917814 1.513505 -0.38471025 151
2.0418854 1.5124376 -0.39138788 158
2.0978525 1.514407 -0.39923409 142
2.1436894 1.5078477 -0.40491009 150
2.1953688 1.5042922 -0.41175467 138
2.259577 1.5079067 -0.42110336 139
2.320065 1.5074794 -0.42961735 135
2.385875 1.5089549 -0.43913296 124
2.4461868 1.5054179 -0.44747999 97
2.5109937 1.503158 -0.45666176 87
2.571847 1.497048 -0.4650088 118
2.6226265 1.4838371 -0.47135252 77
2.7097459 1.4895645 -0.48470783 54
2.7721715 1.4798967 -0.49322182 74
2.8347614 1.4689175 -0.50173575 53
2.920392 1.4681439 -0.5145902 55
3.0064204 1.4654847 -0.52744466 38
3.091922 1.4605088 -0.54013216 62
3.2037413 1.4655533 -0.55766094 30
3.3107274 1.4656705 -0.57418811 56
3.3819344 1.4478436 -0.5840376 41
3.4623039 1.432258 -0.5955565 26
3.5803277 1.4299186 -0.61392003 33
2.6316535 1.0134356 -0.43863213 40
2.6392705 0.97934783 -0.43779743 37
2.6473765 0.94555819 -0.43712968 96
2.6792932 0.92005277 -0.44080237 28
2.7006805 0.89050502 -0.44263873 41
3.3270881 1.0522404 -0.55198497 37
3.1482081 0.95326102 -0.51809597 13
2.7212107 0.78747791 -0.44080237 11
5.4123921 1.4957167 -0.9119094 10
0 0 0 7
0 0 0 7
5.5002317 1.3041396 -0.91825318 92
5.4898462 1.2307162 -0.91374576 135
5.4977832 1.1618264 -0.91257715 150
5.5154948 1.0950415 -0.91324496 136
5.5081611 1.0234886 -0.9097392 95
5.4979625 0.95194441 -0.90589952 104
5.4751587 0.87892747 -0.9000566 81
5.4572477 0.80748153 -0.89521533 96
5.45893 0.73939151 -0.89387983 77
5.4940138 0.67560107 -0.89838719 109
5.4852314 0.60628527 -0.89554924 114
6.0829616 0.59701544 -0.99604756 158
6.0927763 0.52257651 -0.99654847 436
6.0829973 0.44661137 -0.99387735 434
6.0771947 0.37126657 -0.99204105 455
6.0694757 0.29608336 -0.99003774 459
6.0667405 0.2213624 -0.98903602 495
6.0798426 0.14716201 -0.99087244 527
6.0683737 0.072386578 -0.98870224 580
6.071763 -0.0020876115 -0.98920304 568
6.0525484 -0.076364577 -0.98603112 556
6.0560846 -0.15075465 -0.98686582 480
6.0537786 -0.22506076 -0.98686582 443
6.0239711 -0.29802269 -0.9823584 140
6.0572557 -0.37422684 -0.98870224 387
6.0522079 -0.44853052 -0.98870224 415
6.0393715 -0.52217346 -0.98753363 348
6.0501709 -0.59798878 -0.99053854 377
6.0433569 -0.67229742 -0.99070543 367
5.5698485 -0.689008 -0.9114086 113
5.5512037 -0.75597841 -0.9097392 208
5.5502863 -0.82534665 -0.91124165 179
5.5368199 -0.89292473 -0.91074085 180
5.5215597 -0.96012795 -0.91007304 198
5.5423174 -1.0339546 -0.91574907 246
5.5263109 -1.1013122 -0.91524822 178
6.0293827 -1.2785783 -1.0047284 294
6.0238204 -1.3548497 -1.0065649 286
6.0192108 -1.4316328 -1.0087351 307
6.0241427 -1.5111432 -1.0127416 304
6.0165858 -1.5879722 -1.0147449 355
5.9975958 -1.6619484 -1.0149119 417
6.0004225 -1.7422919 -1.0190854 447
5.9889679 -1.8189451 -1.0209217 476
5.9943919 -1.9012393 -1.0259299 310
5.9921412 -1.9817733 -1.0297695 364
5.9729643 -2.0570819 -1.0307713 189
5.9788332 -2.1415229 -1.0364472 216
5.989068 -2.2284782 -1.0431248 478
5.9925447 -2.3138747 -1.0488008 433
5.9627833 -2.3868721 -1.0486339 277
5.9676566 -2.4742081 -1.0549777 478
5.9676538 -2.5604665 -1.0606537 455
5.9583168 -2.6434984 -1.0648272 319
5.0622463 -2.3208911 -0.90406317 16
0 0 0 9
0 0 0 7
0 0 0 11
0 0 0 8
0 0 0 9
0 0 0 6
0 0 0 10
0 0 0 6
0 0 0 9
0 0 0 6
4.465632 -2.8301594 -0.85631812 16
4.3661079 -2.8427982 -0.84329671 47
4.2702341 -2.8556182 -0.83094311 101
4.1446342 -2.8458769 -0.81241268 65
4.040081 -2.8476884 -0.79805577 84
3.9169416 -2.8335052 -0.77969229 88
3.8034825 -2.8232 -0.76316512 72
3.7214763 -2.8338339 -0.75314867 99
3.6320171 -2.8368187 -0.74146283 91
3.5392053 -2.83496 -0.72894228 82
3.4127014 -2.8031049 -0.70890933 12
3.3569245 -2.8269956 -0.70423502 44
0 0 0 9
0 0 0 5
0 0 0 8
0 0 0 6
1.8356856 -1.7498549 -0.39055318 7
1.7922009 -1.7509006 -0.385378 11
1.735726 -1.7378974 -0.37703097 46
1.7018762 -1.7463622 -0.37402603 52
1.6640033 -1.7499747 -0.37001947 59
1.6263005 -1.7529236 -0.36601287 47
1.5808342 -1.7464452 -0.36000299 54
1.5416523 -1.7457675 -0.3554956 56
1.5130302 -1.7563411 -0.35365924 54
1.4926326 -1.7762849 -0.35399315 54
1.478227 -1.8036153 -0.35599643 65
1.4726137 -1.8424062 -0.36050382 53
1.4644493 -1.8789957 -0.36451042 61
1.4424746 -1.8983948 -0.36484429 40
1.4167209 -1.9127852 -0.36417651 27
0 0 0 8
1.3687845 -1.9461709 -0.36400959 24
1.2767634 -1.8636229 -0.3436428 74
1.2455829 -1.8668522 -0.34113869 72
1.2161294 -1.8720783 -0.33913541 61
1.1851542 -1.874365 -0.3366313 63
1.1527559 -1.8736566 -0.33362636 64
1.1251156 -1.8800497 -0.33212388 82
1.0945145 -1.8809363 -0.32961977 86
1.0630908 -1.8796407 -0.32678178 90
1.0347165 -1.8830427 -0.32494542 92
1.0068842 -1.8869023 -0.32327601 97
0.97911382 -1.8903638 -0.32160661 97
0.95229709 -1.8951906 -0.32027107 81
0.92594218 -1.9005312 -0.3191025 78
0.9004429 -1.9072939 -0.31826779 102
0.8868205 -1.9397155 -0.32227439 58
0.87493289 -1.9774952 -0.32728261 55
0.86574477 -2.023428 -0.33379328 51
0.85480446 -2.0676055 -0.33997011 36
0.855717 -2.1438577 -0.35198984 39
0.88964379 -2.3105896 -0.38036978 61
0.95908797 -2.5847406 -0.42794794 74
0.93493354 -2.6176684 -0.43178755 100
0.90241963 -2.6280119 -0.43162063 89
0.88432229 -2.6819556 -0.43929991 131
0.85878456 -2.7161052 -0.44347343 155
0.82681942 -2.7311568 -0.44430813 183
0.79159492 -2.7354157 -0.44330648 197
0.75533921 -2.7354209 -0.44163707 209
0.71844965 -2.732089 -0.43946683 197
0.68199557 -2.7292225 -0.43746355 210
0.64389908 -2.7181997 -0.43412474 197
0.6094147 -2.7210865 -0.43329003 227
0.57597691 -2.7283599 -0.43329003 203
0.54129916 -2.7294204 -0.43228838 223
0.50505936 -2.7213173 -0.42978427 221
0.46775302 -2.7049665 -0.42594463 175
0.4345237 -2.7105026 -0.42594463 160
0.39992824 -2.7068532 -0.42444217 171
0.3664158 -2.7096028 -0.4241083 147
0.33265501 -2.7099812 -0.42344052 183
0.30035105 -2.7226794 -0.424943 192
0.26604855 -2.7173288 -0.42344052 211
0.23217608 -2.7144949 -0.42243889 179
0.19913711 -2.7210729 -0.42310664 168
0.16554941 -2.7203593 -0.42260581 209
0.13215394 -2.7221861 -0.42260581 172
0.098702453 -2.7226174 -0.42243889 167
0.065140039 -2.7177095 -0.42143723 174
0.03176076 -2.7163324 -0.42110336 169
-0.001573705 -2.7066581 -0.41943395 180
-0.034727197 -2.7015057 -0.41859925 186
-0.067778818 -2.6969335 -0.41793147 196
-0.10065059 -2.6899869 -0.41692984 161
-0.13360475 -2.6875644 -0.41676289 152
-0.16681769 -2.6896586 -0.41743064 145
-0.06534896 -0.86833316 -0.10859008 306
-0.07574559 -0.86451882 -0.10808927 463
-0.085380942 -0.85371226 -0.10641986 642
-0.095959708 -0.85358012 -0.1065868 764
-0.10678975 -0.8552739 -0.10708763 971
-0.11767577 -0.85682994 -0.10758844 1068
-0.12861598 -0.85824722 -0.10808927 1157
-0.13788408 -0.84881687 -0.10675374 860
-0.14744644 -0.84220374 -0.10591903 708
-0.15740924 -0.83839244 -0.10558516 429
-0.16730075 -0.83446366 -0.10525127 358
-0.17609783 -0.82559586 -0.10408269 212
-0.18189242 -0.80413312 -0.10074387 156
-0.19151872 -0.80088121 -0.10057692 106
-0.20133236 -0.79847074 -0.10057692 112
-0.21111567 -0.79593998 -0.10057692 118
-0.22139341 -0.79518974 -0.10091081 142
-0.24404846 -0.83691782 -0.10875703 207
-0.2565912 -0.84140766 -0.11009255 236
-0.27434501 -0.86169261 -0.11426608 429
-0.28520808 -0.85919726 -0.11443302 455
-0.29573029 -0.8556326 -0.11443302 732
-0.30421409 -0.8463695 -0.11343136 669
-0.31595215 -0.84626913 -0.11409913 511
-0.3302182 -0.85244644 -0.11593549 413
-0.33662546 -0.83826035 -0.11409913 259
-0.34801921 -0.83679885 -0.11459996 213
-0.3504898 -0.81434202 -0.11126114 114
-0.35725909 -0.80276912 -0.10992561 81
-0.37324423 -0.81176972 -0.11242972 121
-0.38486454 -0.81069332 -0.11309749 120
-0.39954263 -0.81565541 -0.11493383 114
-0.41528654 -0.82213897 -0.11710407 122
-0.43034047 -0.82660717 -0.11894041 141
-0.45765364 -0.8534345 -0.12511723 387
-0.46904323 -0.84948152 -0.12545112 362
-0.48089072 -0.8462351 -0.12595193 350
-0.49173573 -0.84112185 -0.12611887 488
-0.51418895 -0.8553189 -0.13012545 38
-1.1382309 -1.8443888 -0.32811731 134
-1.1512816 -1.8152897 -0.32511237 148
-1.1546483 -1.7721016 -0.31926945 161
-1.1527481 -1.7225511 -0.31209099 170
-1.1464617 -1.6684417 -0.30391088 172
-1.1486785 -1.6284544 -0.29856879 185
-1.146623 -1.583874 -0.29222503 180
-1.1448247 -1.5411774 -0.28621516 188
-1.1373773 -1.4924911 -0.27886975 196
-1.1361917 -1.4535513 -0.27352765 202
-1.1305277 -1.4102509 -0.2671839 225
-1.1271034 -1.3711232 -0.26167485 239
-1.1235273 -1.33305 -0.25633276 239
-1.1224098 -1.2990071 -0.25182533 218
-1.1029917 -1.2452554 -0.24281053 194
-1.0115682 -1.1140234 -0.21593304 173
-0.95670432 -1.0278544 -0.19890508 235
-0.92708731 -0.97177005 -0.18855475 130
-0.95891446 -0.98078191 -0.19339603 83
-0.38166758 -0.37991032 -0.052331027 141
-0.37571406 -0.36487103 -0.049826916 268
-0.3901619 -0.36974955 -0.052164089 329
-0.40333965 -0.37298509 -0.054167379 410
-0.43418995 -0.39184022 -0.060177248 519
-0.42123637 -0.37081039 -0.056170668 649
-0.41754156 -0.35853043 -0.054334316 772
-0.44831824 -0.37559339 -0.060177248 1253
-0.42850137 -0.35005158 -0.054835144 1114
-0.41505763 -0.33059946 -0.050995503 381
0 0 0 7
0 0 0 7
-0.44674551 -0.32977882 -0.05516902 737
-0.44916043 -0.32311681 -0.054835144 652
-0.45228553 -0.317013 -0.054668199 727
-0.45776787 -0.31255421 -0.055002082 798
-0.4640286 -0.30855608 -0.055502903 719
-0.47108632 -0.30498871 -0.056170668 850
-0.47479352 -0.2991848 -0.056170668 741
-0.48010817 -0.29437003 -0.056504551 708
-0.48706749 -0.29048324 -0.05717231 1467
-0.4803724 -0.27852815 -0.05516902 823
-0.48032239 -0.27066889 -0.054501262 920
-0.48101622 -0.26332837 -0.054000434 872
-0.47986338 -0.25508252 -0.05316573 883
-0.47945645 -0.24735884 -0.052497972 908
-0.4789328 -0.23968388 -0.051830206 904
-0.48095191 -0.23335628 -0.051663268 1067
-0.48110521 -0.22617242 -0.05116244 1166
-0.47936213 -0.21819925 -0.050327737 1279
-0.48020077 -0.21150146 -0.049993854 1377
-0.48004124 -0.20442778 -0.049493033 1452
-0.47978082 -0.19739 -0.048992213 1739
-0.47667378 -0.1892917 -0.047990564 2023
-0.47252113 -0.18094499 -0.046821978 2199
-0.47378176 -0.17478943 -0.04665504 2356
-0.46660724 -0.16564204 -0.044985633 2625
-0.46767235 -0.15958296 -0.044818688 2626
-0.46959549 -0.15383188 -0.044818688 2608
-0.47144789 -0.14805764 -0.044818688 2596
-0.47322926 -0.1422611 -0.044818688 2825
-0.46925741 -0.13479635 -0.043817047 2980
-0.47372714 -0.12981614 -0.044317868 3129
-0.44668114 -0.11645871 -0.039309647 4490
-0.450946 -0.11168675 -0.039810468 5145
-0.44460806 -0.10432319 -0.038474936 4563
-0.44393072 -0.098427549 -0.038141061 5536
-0.43642354 -0.091135904 -0.036638591 5374
-0.4404102 -0.086350068 -0.037139412 5411
-0.44822204 -0.082201317 -0.038307998 5577
-0.43753934 -0.074673787 -0.036304709 6041
-0.44134316 -0.069768317 -0.036805529 6208
-0.43338823 -0.063046411 -0.03530306 5322
-0.43412927 -0.057723317 -0.03530306 5355
-0.44654781 -0.053838059 -0.03730635 5946
-0.44717488 -0.048354175 -0.03730635 5093
-0.46441555 -0.044503376 -0.04014435 2027
-0.46296197 -0.038632043 -0.039810468 857
0 0 0 5
-0.43424702 -0.025449455 -0.034802239 922
-0.42664832 -0.019732829 -0.033466715 2728
-0.41700533 -0.01413431 -0.031797308 5582
-0.39841953 -0.0085590696 -0.028625432 4089
-0.41919836 -0.003920129 -0.032131184 5308
-0.48378104 -0.0012342355 -0.04609153 649
-0.47292671 0.0045713009 -0.044187073 308
-0.47874263 0.010518617 -0.045225862 84
-0.47562477 0.016284429 -0.044706468 71
-0.47538915 0.02211985 -0.044706468 61
-0.47311574 0.027831452 -0.044360202 62
-0.49336571 0.03515359 -0.047995981 58
-0.46640259 0.038927801 -0.043321405 131
-0.47961211 0.045997769 -0.045745265 347
-0.47803265 0.051771477 -0.045572128 374
-0.47247377 0.057031706 -0.044706468 459
-0.47466621 0.063222595 -0.045225862 456
-0.47677743 0.069475815 -0.045745265 446
-0.4788062 0.075790308 -0.04626466 528
-0.48075134 0.08216498 -0.046784054 470
-0.47970685 0.088058352 -0.046784054 516
-0.47859013 0.093938462 -0.046784054 531
-0.47932848 0.1002121 -0.04713032 489
-0.47902361 0.1063023 -0.047303457 524
-0.47768307 0.11217266 -0.047303457 500
-0.47531515 0.11778694 -0.04713032 468
-0.47478634 0.1238618 -0.047303457 497
-0.47512916 0.13020392 -0.047649723 529
-0.47633347 0.13684717 -0.048169117 501
-0.47744587 0.14353949 -0.048688512 493
-0.47658738 0.14968498 -0.048861649 516
-0.47564992 0.15583096 -0.049034778 513
-0.47463319 0.16197646 -0.049207915 474
-0.47353712 0.16812038 -0.049381044 460
-0.47236156 0.17426178 -0.04955418 501
-0.47018757 0.18004526 -0.04955418 448
-0.46885729 0.1861672 -0.049727309 482
-0.46835738 0.19266032 -0.050073575 493
-0.46867377 0.19955698 -0.05059297 437
-0.46979144 0.20688923 -0.051285502 488
-0.46990371 0.21386874 -0.051804896 493
-0.46813422 0.22004002 -0.051978033 475
-0.46716911 0.22663191 -0.052324299 471
-0.46611243 0.23323311 -0.052670565 505
-0.46496379 0.23984236 -0.05301683 475
-0.46372288 0.24645841 -0.053363089 463
-0.46238941 0.25307998 -0.053709354 466
-0.4592489 0.25873518 -0.053709354 417
-0.45603925 0.26435137 -0.053709354 487
-0.45445061 0.27094018 -0.05405562 413
-0.45360729 0.27804619 -0.054575022 427
-0.45515409 0.28675249 -0.055613812 425
-0.45820615 0.29661202 -0.056998875 438
-0.45862672 0.30494788 -0.057864536 426
-0.45647448 0.31166711 -0.058210801 439
-0.45503142 0.31894624 -0.058730196 436
-0.45427641 0.32681346 -0.059422728 468
-0.45339638 0.33470988 -0.060115259 417
-0.45239049 0.34263352 -0.060807791 374
-0.45125791 0.35058254 -0.061500322 397
-0.45230505 0.36040092 -0.062712252 387
-0.4524169 0.36967242 -0.063751042 386
-0.45312232 0.37963441 -0.064962968 335
-0.45290473 0.38902548 -0.066001758 384
-0.45252424 0.39846784 -0.067040563 386
-0.4505198 0.40663624 -0.067733094 735
-0.45271274 0.4188363 -0.069464415 629
-0.44753888 0.42436025 -0.069464415 440
-0.44229764 0.42982027 -0.069464415 388
-0.43490016 0.43312663 -0.06894502 306
-0.4460628 0.45534652 -0.073100194 428
-0.43500754 0.45508048 -0.071715131 355
-0.43274239 0.46399185 -0.072580799 323
-0.43296966 0.47583428 -0.074138999 318
-0.43492815 0.48996437 -0.076216578 320
-0.43982098 0.50794113 -0.079159841 289
-0.44560489 0.52761698 -0.082449347 331
-0.44847059 0.54446411 -0.085046336 293
-0.44914192 0.55915278 -0.08712393 294
-0.4489131 0.5731622 -0.089028388 291
-0.44960001 0.58881634 -0.091279119 338
-0.44879559 0.60299015 -0.093183577 379
-0.44482461 0.61324096 -0.094222367 612
-0.43159336 0.61060196 -0.092491046 328
-0.4240678 0.6158523 -0.092491046 148
-0.47066164 0.70207399 -0.10963117 86
-0.51143456 0.78374147 -0.12555934 30
-0.53550923 0.84320742 -0.13663983 50
-0.53545737 0.86648387 -0.14010248 37
-0.52529043 0.87383425 -0.14027561 38
-0.53883475 0.92190611 -0.14875911 53
-0.5299089 0.93273348 -0.14962476 55
-0.52602345 0.95297033 -0.15239489 53
-0.51754028 0.96543336 -0.15360682 61
-0.5065614 0.97346002 -0.15395308 62
-0.49413446 0.97872335 -0.15377995 68
-0.48208678 0.98471344 -0.15377995 71
-0.46954533 0.98966497 -0.15360682 81
-0.45654467 0.99356174 -0.15326054 66
-0.44431779 0.99908942 -0.15326054 91
-0.4316358 1.0035615 -0.15308742 100
-0.40571445 0.97602743 -0.14685465 214
-0.39443827 0.98276156 -0.14720091 239
-0.3894406 1.0059049 -0.15066357 315
-0.37638068 1.008762 -0.1503173 372
-0.36297745 1.010523 -0.1497979 627
-0.34830564 1.0083822 -0.14858598 1091
-0.33714136 1.0163211 -0.14927851 552
-0.324049 1.0185041 -0.14893223 1092
-0.31038177 1.0186342 -0.1482397 698
-0.29840714 1.0242581 -0.14858598 660
-0.28082168 1.0098083 -0.14529645 834
-0.26564583 1.0027028 -0.143392 403
-0.25212386 1.0011106 -0.14252633 350
-0.23913656 1.0012543 -0.14200693 352
-0.22596785 1.0002698 -0.1413144 345
-0.2130636 1.0000769 -0.14079501 300
-0.20019819 0.99971837 -0.14027561 320
-0.18755418 1.0001636 -0.13992935 316
-0.17476094 0.99947858 -0.13940994 323
-0.16232604 1.0005755 -0.13923682 336
-0.15003522 1.0024922 -0.13923682 333
-0.13732371 1.0013301 -0.13871741 371
-0.12466337 1.0000075 -0.13819802 361
-0.11270848 1.0043986 -0.13871741 329
-0.099600978 0.99786496 -0.13733236 418
-0.086924881 0.99410582 -0.1364667 559
-0.074428715 0.99116886 -0.13577417 487
-0.062138855 0.99004149 -0.13542791 428
-0.049645506 0.98384351 -0.13421598 513
-0.037459288 0.981426 -0.13369657 546
-0.025510147 0.98575008 -0.1343891 385
-0.01343603 0.98795861 -0.13473538 430
-0.0013138024 1.0047923 -0.13767862 320
0.01117181 1.0175356 -0.13992935 295
0.024786647 1.0635983 -0.14806658 205
0.037800666 1.0622299 -0.14789344 241
0.054638956 1.1393999 -0.16157091 139
0.068918251 1.1435589 -0.16243657 144
0.10572194 1.4520329 -0.2169733 116
0.13407663 1.5732862 -0.23861489 414
0.15366232 1.5744628 -0.23913428 437
0.17329706 1.5753953 -0.23965368 456
0.19273695 1.5741276 -0.2398268 447
0.2124366 1.5745717 -0.24034619 435
0.23232047 1.5757434 -0.24103874 421
0.25257763 1.5786083 -0.24207753 469
0.27310821 1.5821829 -0.24328944 489
0.29376435 1.5854902 -0.24450138 480
0.31377462 1.5846639 -0.24502078 429
0.33340108 1.5816576 -0.2451939 501
0.35278538 1.5774473 -0.2451939 503
0.37211651 1.5729992 -0.2451939 499
0.3916308 1.5692698 -0.24536705 492
0.32606414 1.2424304 -0.18684825 347
0.34023592 1.2345386 -0.18615572 354
0.35481167 1.2283784 -0.18580946 370
0.368716 1.2201617 -0.18511693 353
0.38306692 1.2136672 -0.18477066 362
0.39762282 1.2079399 -0.18459754 356
0.4130567 1.2048321 -0.1849438 398
0.42747906 1.1987451 -0.18477066 373
0.4418143 1.1924858 -0.18459754 362
0.45641464 1.1869743 -0.18459754 401
0.47131187 1.1821986 -0.18477066 424
0.48653731 1.1781458 -0.18511693 376
0.55371326 1.2952064 -0.20866296 196
0.60308039 1.363953 -0.22320607 127
0 0 0 40
0 0 0 53
0 0 0 237
0 0 0 425
0 0 0 462
0 0 0 478
0 0 0 453
0 0 0 437
0 0 0 473
0 0 0 419
0 0 0 417
0 0 0 366
0 0 0 342
1.0210432 1.5306934 -0.284495 358
0 0 0 309
1.0792794 1.5349718 -0.29090089 305
1.110148 1.5383762 -0.29453668 312
1.1395011 1.5388781 -0.29765305 291
1.1690321 1.5388894 -0.30076945 291
1.1993394 1.5391817 -0.30405897 303
1.2304432 1.5397289 -0.30752161 315
1.2604899 1.5382193 -0.31063798 312
1.2906833 1.5362021 -0.31375438 303
1.3248744 1.5381486 -0.31790957 305
1.3606099 1.5409607 -0.322411 319
1.3926435 1.5387449 -0.32587364 295
1.419464 1.5301996 -0.32795125 291
1.4564685 1.5319276 -0.33262584 775
1.4717193 1.5104139 -0.33176017 234
1.5054626 1.5075637 -0.33556908 175
1.5478132 1.5123657 -0.34145558 205
1.591218 1.5170312 -0.34751523 157
1.6493962 1.534264 -0.35703751 234
1.6819633 1.5264769 -0.36032704 223
1.7204875 1.5233397 -0.36500159 226
1.7614219 1.5214149 -0.37019557 192
1.8070859 1.5225168 -0.37642834 169
1.8477094 1.5183495 -0.38144919 184
1.8869618 1.5121804 -0.38612378 188
1.9364306 1.5131532 -0.39304906 190
1.9838513 1.5113462 -0.39945498 187
2.0370522 1.5127078 -0.40707281 170
2.0913777 1.5135645 -0.41486377 164
2.1395845 1.5087738 -0.42126966 133
2.1912327 1.5052539 -0.42836809 152
2.2521186 1.5067108 -0.43737099 140
2.3158405 1.5085071 -0.44689327 132
2.3782742 1.5079081 -0.45606929 125
2.4460664 1.5091004 -0.4662841 123
2.5125492 1.5078385 -0.47615266 112
2.5691514 1.4992149 -0.48394364 46
2.613919 1.4826277 -0.48931074 47
2.6655641 1.4689656 -0.49606293 68
2.7598205 1.4770126 -0.51129854 52
2.8144529 1.4620903 -0.51857013 61
2.8902414 1.4566776 -0.52999687 50
2.9760473 1.454374 -0.54332811 43
3.0764658 1.4569186 -0.55942941 58
3.1845458 1.4604939 -0.5769158 36
3.2616513 1.4476559 -0.58834255 44
3.3352916 1.4315885 -0.59907675 24
0 0 0 16
3.5294449 1.4133289 -0.62937492 12
2.6469693 1.0227569 -0.45987821 34
2.6740909 0.99569035 -0.46264833 43
2.6861084 0.96280015 -0.46264833 85
2.6725767 0.92111039 -0.45797375 41
2.6930301 0.89133525 -0.45970508 29
0 0 0 13
0 0 0 13
0 0 0 8
0 0 0 6
0 0 0 7
0 0 0 8
5.4828134 1.3041602 -0.95174766 123
5.5147409 1.2404504 -0.95469093 110
5.5054598 1.1675793 -0.95036256 120
5.5116458 1.0983927 -0.94897753 163
5.5053449 1.027065 -0.94551486 146
5.5010381 0.95656371 -0.94257164 139
5.483191 0.88428736 -0.93737763 164
5.4887586 0.81621021 -0.93651199 177
5.5120249 0.750651 -0.93893588 179
5.4778123 0.67764217 -0.93131804 191
5.4866943 0.6104787 -0.93149114 143
6.0994997 0.60285479 -1.038487 101
6.0809259 0.52575827 -1.0339855 430
6.087903 0.45116895 -1.0341587 476
6.0713539 0.3750951 -1.0303497 472
6.0745158 0.30051351 -1.0301766 539
6.0718412 0.22572882 -1.0291378 598
6.0593848 0.15083618 -1.0265409 638
6.0666885 0.076540276 -1.0275797 683
6.0612617 0.0020860077 -1.0265409 701
6.0568914 -0.072247401 -1.0258483 693
6.0634255 -0.14676151 -1.0272334 709
6.0641208 -0.22126631 -1.0277528 722
6.0540633 -0.2953285 -1.0265409 204
6.053915 -0.36983991 -1.0272334 693
6.0587435 -0.44482595 -1.0289646 683
6.0538096 -0.51922691 -1.0291378 699
6.0352192 -0.59232074 -1.0270603 674
6.0460958 -0.66839731 -1.0303497 556
5.5662785 -0.6845029 -0.94689995 121
5.5476999 -0.75143415 -0.94516861 239
5.5487776 -0.82104439 -0.9470731 310
5.5421743 -0.88969982 -0.94776559 284
5.5230756 -0.95629799 -0.94638056 305
5.5380363 -1.0290462 -0.95122826 253
5.5172639 -1.0953931 -0.94984317 244
6.0246997 -1.2732913 -1.0435078 419
6.020153 -1.3497157 -1.0455854 422
6.0223022 -1.428039 -1.0490481 470
6.0062356 -1.5023127 -1.0493944 481
6.0044904 -1.580421 -1.0525107 526
6.0045791 -1.6594996 -1.0561465 602
5.9988976 -1.7374468 -1.0589166 620
6.0072856 -1.8200759 -1.0644568 615
5.9957657 -1.8972251 -1.0665344 354
5.9888668 -1.976218 -1.0696508 390
5.9846544 -2.0566075 -1.0734597 396
5.9784417 -2.1368582 -1.0770955 327
5.9942374 -2.2258408 -1.0850596 609
5.9747419 -2.3024206 -1.0866178 552
5.9579272 -2.3803189 -1.0888685 394
5.9610281 -2.4668162 -1.0951014 433
5.9493184 -2.5479274 -1.0987371 90
5.8770823 -2.6027884 -1.0909461 27
5.8536549 -2.6788135 -1.0926775 41
5.0501432 -2.3863127 -0.94291788 26
0 0 0 8
0 0 0 10
0 0 0 8
0 0 0 6
0 0 0 7
0 0 0 7
0 0 0 7
0 0 0 6
0 0 0 7
4.4753938 -2.8316815 -0.89201695 22
4.4015021 -2.8611505 -0.88387972 30
4.2710567 -2.8514903 -0.86379635 96
4.1480227 -2.8435249 -0.84509802 98
4.0363102 -2.8403492 -0.82865041 104
3.9189253 -2.8302538 -0.81081778 115
3.8356373 -2.8423505 -0.80025673 111
3.7338364 -2.8385243 -0.78554046 101
3.6381526 -2.8368766 -0.77203614 114
3.5353904 -2.8271616 -0.75680047 94
3.4303787 -2.8128614 -0.74087226 16
3.3533943 -2.819242 -0.73117685 129
3.2946775 -2.8395987 -0.7256366 124
3.1894803 -2.8178473 -0.709189 100
3.0466411 -2.7589014 -0.68356538 58
0 0 0 11
0 0 0 7
0 0 0 8
0 0 0 6
0 0 0 6
0 0 0 6
1.5966142 -1.7164946 -0.37313882 18
1.5707992 -1.7308506 -0.3719269 33
1.5403054 -1.7396684 -0.36950305 53
1.5149807 -1.7539651 -0.36846426 48
1.4895372 -1.7679031 -0.36742544 64
1.4764793 -1.7967063 -0.36984932 50
1.4734014 -1.838524 -0.37521642 23
1.4422443 -1.8455977 -0.37279257 17
0 0 0 7
0 0 0 6
0 0 0 6
1.9676673 -2.7909522 -0.56133384 27
1.270068 -1.8485467 -0.35530618 60
1.2434568 -1.8582615 -0.35409427 103
1.2135756 -1.8626494 -0.35184354 74
1.182194 -1.8640893 -0.34907341 71
1.1519946 -1.8667184 -0.34664956 82
1.1219099 -1.8688889 -0.3442257 101
1.0899619 -1.8672004 -0.34110931 71
1.0606538 -1.8692961 -0.3388586 78
1.0324095 -1.8726807 -0.33695415 72
1.0033138 -1.8739178 -0.33470342 60
0.97570515 -1.8773474 -0.33297208 55
0.94993603 -1.8839015 -0.33193329 75
0.92415339 -1.8901064 -0.3308945 85
0.90636533 -1.9128785 -0.33314523 62
0.89308006 -1.9462413 -0.33747354 45
0.88070804 -1.9831642 -0.34249437 37
0.86872697 -2.0227883 -0.34803462 34
0.85590416 -2.062412 -0.35357484 53
0.85577434 -2.1358559 -0.36552098 57
0.85467637 -2.2114348 -0.3778134 48
0.85940105 -2.3076077 -0.39391473 39
0.84695172 -2.3624895 -0.40222508 31
0.8598873 -2.4947026 -0.42490545 47
0.85764474 -2.5910997 -0.44083363 45
0.86238676 -2.7169094 -0.46212894 154
0.83012533 -2.7310574 -0.46282148 222
0.79462737 -2.7344177 -0.46160954 245
0.7589094 -2.7363696 -0.46022448 290
0.72250998 -2.7350008 -0.45832002 287
0.6855405 -2.7302864 -0.45589617 253
0.65107322 -2.7346606 -0.45520362 279
0.61487442 -2.7309129 -0.45312604 305
0.57907015 -2.7276542 -0.45122159 280
0.54497719 -2.731657 -0.45070219 281
0.50906903 -2.7255523 -0.44845146 261
0.47187632 -2.7102458 -0.44464254 201
0.43826872 -2.7138877 -0.4442963 191
0.40348551 -2.7093194 -0.44256496 191
0.36967683 -2.7101631 -0.44187242 206
0.33711541 -2.7203605 -0.44291124 183
0.303707 -2.7242923 -0.44291124 179
0.26889926 -2.7140923 -0.44048738 202
0.23481107 -2.7083564 -0.43892917 188
0.20163028 -2.7120163 -0.43910232 211
0.16900049 -2.7251 -0.44100678 204
0.13501334 -2.7161477 -0.43910232 195
0.10163546 -2.7166159 -0.43892917 197
0.068242118 -2.7156892 -0.43858293 231
0.034911297 -2.7163222 -0.43858293 214
0.0015744631 -2.7116218 -0.43771726 208
-0.031617869 -2.7045429 -0.43650532 213
-0.064780377 -2.7029669 -0.4363322 219
-0.097945049 -2.7019682 -0.4363322 221
-0.1316731 -2.7123675 -0.43840978 230
-0.16398419 -2.6948183 -0.43563965 169
-0.062267452 -0.86170602 -0.11292067 221
-0.072921574 -0.86185831 -0.11309381 340
-0.083685189 -0.86285883 -0.11344008 478
-0.093074992 -0.85099894 -0.11153562 721
-0.1030294 -0.84588253 -0.11084309 536
-0.11393153 -0.84845841 -0.11153562 827
-0.12505665 -0.85186774 -0.11240128 972
-0.13456312 -0.84443444 -0.11136249 813
-0.14542019 -0.84563082 -0.11188188 846
-0.15578642 -0.8437826 -0.11188188 515
-0.16516922 -0.83697736 -0.11101621 558
-0.17583546 -0.83681464 -0.11136249 312
-0.18371911 -0.82402283 -0.10945803 210
-0.18949628 -0.80349886 -0.10616851 140
-0.19886386 -0.79920214 -0.10582225 130
-0.20815459 -0.79479676 -0.10547598 110
-0.21815483 -0.79313183 -0.10564911 132
-0.22677466 -0.78661108 -0.10495658 67
-0.23812506 -0.78942424 -0.10599537 87
-0.25790286 -0.81836706 -0.11188188 147
-0.27811649 -0.84600341 -0.11759526 246
-0.2923204 -0.85370332 -0.11967285 495
-0.30376962 -0.85283393 -0.12019224 567
-0.31386933 -0.84811872 -0.12001911 513
-0.32850522 -0.85523069 -0.1220967 393
-0.33824435 -0.84930599 -0.12175043 322
-0.34638059 -0.83963132 -0.12071164 214
-0.34734839 -0.81359047 -0.11655647 134
-0.35730624 -0.80926663 -0.11655647 91
-0.36967027 -0.81019408 -0.11759526 120
-0.38168958 -0.81004858 -0.11846092 119
-0.39462441 -0.81149989 -0.11967285 97
-0.40366766 -0.80483651 -0.11932658 69
-0.41351387 -0.79982233 -0.11932658 47
-0.4520748 -0.84854537 -0.13006079 220
-0.46672663 -0.85070008 -0.13161899 287
-0.47858685 -0.84747964 -0.13213839 302
-0.49539614 -0.85260588 -0.1343891 790
-0.49772227 -0.83294475 -0.13161899 148
-1.1370515 -1.8481615 -0.34249437 123
-1.1464759 -1.8132645 -0.33816606 168
-1.1552171 -1.7784177 -0.33383775 158
-1.1517894 -1.7264336 -0.32587364 201
-1.1450355 -1.6715585 -0.31721702 198
-1.1512871 -1.637248 -0.31288871 220
-1.150526 -1.5942577 -0.30665594 217
-1.145367 -1.5467898 -0.29938439 205
-1.1332573 -1.4918548 -0.29038149 202
-1.1339105 -1.4553161 -0.28536066 241
-1.1270719 -1.4105301 -0.27843535 264
-1.1368001 -1.3874557 -0.27635777 210
-1.1296489 -1.3447599 -0.26977873 275
-1.129343 -1.3114035 -0.26527727 287
-1.1329572 -1.2834256 -0.26198778 281
-1.1360567 -1.2555583 -0.25869825 251
-1.1446768 -1.2343057 -0.25696692 254
-1.0857244 -1.1424037 -0.23809546 130
-0.95799083 -0.98375857 -0.20243017 60
-0.98043579 -0.98237652 -0.20502716 38
-0.39755151 -0.38965192 -0.058903333 63
-0.41728055 -0.39900801 -0.062539116 97
-0.42070258 -0.3925164 -0.062192846 99
-0.41965041 -0.38203192 -0.060807791 109
-0.42135605 -0.37424332 -0.060115259 144
-0.4281539 -0.37097472 -0.060634654 159
-0.43644166 -0.36886379 -0.061500322 174
-0.44321904 -0.36535498 -0.062019717 197
-0.44382486 -0.35681084 -0.061154056 154
-0.40236548 -0.31558007 -0.050939236 54
0 0 0 11
-0.4527024 -0.33729899 -0.060288396 217
-0.46798131 -0.33979726 -0.062712252 1006
-0.46809015 -0.33119264 -0.061846588 1068
-0.46562272 -0.32096499 -0.060461525 1135
-0.46625108 -0.31303769 -0.059768993 853
-0.46923193 -0.30675527 -0.059595864 805
-0.45548865 -0.28990605 -0.055960078 317
-0.4598504 -0.28481147 -0.056133214 297
-0.48273888 -0.29079571 -0.060115259 1123
-0.48627102 -0.28484985 -0.060115259 697
-0.48201814 -0.27449083 -0.058557067 549
-0.48535025 -0.2685551 -0.058557067 477
-0.4860037 -0.26118565 -0.058037672 498
-0.48392725 -0.25247964 -0.056998875 429
-0.48171112 -0.24386437 -0.055960078 468
-0.47670209 -0.23404552 -0.054401886 430
-0.4768675 -0.22691432 -0.053882491 477
-0.47872078 -0.22063506 -0.053709354 406
-0.48319295 -0.21554235 -0.05405562 466
-0.48761198 -0.21037294 -0.054401886 451
-0.48651737 -0.20286518 -0.053709354 432
-0.48256922 -0.19431864 -0.052497428 416
-0.47940436 -0.18625455 -0.051458638 463
-0.47796136 -0.1789843 -0.050766107 429
-0.48012179 -0.17310549 -0.050766107 405
-0.48220989 -0.16720062 -0.050766107 436
-0.48329028 -0.16096151 -0.05059297 415
-0.48241252 -0.15412591 -0.050073575 446
-0.48049781 -0.14705017 -0.049381044 482
-0.47659084 -0.13949589 -0.048342247 425
-0.47352085 -0.13232274 -0.047476586 438
-0.47510901 -0.12650195 -0.047476586 458
-0.47853631 -0.12114102 -0.047822852 456
-0.47998685 -0.11525953 -0.047822852 469
-0.47944325 -0.10892879 -0.047476586 446
-0.47881684 -0.10262881 -0.04713032 457
-0.47714236 -0.096168391 -0.046610925 471
-0.47635013 -0.089945033 -0.04626466 498
-0.47450691 -0.083587132 -0.045745265 471
-0.47549689 -0.07775791 -0.045745265 467
-0.47933796 -0.072350964 -0.04626466 536
-0.48214155 -0.066728696 -0.046610925 541
-0.48390162 -0.060927764 -0.046784054 516
-0.48461285 -0.054984961 -0.046784054 532
-0.4852511 -0.049033873 -0.046784054 747
-0.46324742 -0.041128419 -0.04280201 888
-0.45389509 -0.034714527 -0.041070681 912
-0.47394764 -0.030352818 -0.044533331 786
-0.47920296 -0.024776852 -0.045398999 470
-0.46962866 -0.018530414 -0.04366767 200
-0.46883607 -0.01274163 -0.043494541 199
-0.46698749 -0.0069628577 -0.043148275 304
-0.47250029 -0.00043771678 -0.046898626 1076
-0.45476201 0.0051452317 -0.043677092 260
-0.48122075 0.011374492 -0.048509389 98
-0.47514579 0.017062319 -0.047435544 184
-0.48964071 0.023614326 -0.050120153 69
-0.47851196 0.028958736 -0.048151441 119
-0.46634626 0.033961397 -0.046003751 264
-0.47177577 0.040187456 -0.047077596 1150
-0.44089413 0.042987686 -0.04152941 4479
-0.45597938 0.05012827 -0.044392988 5651
-0.45630637 0.055840392 -0.044571966 5635
-0.42731413 0.057599027 -0.03938172 3046
-0.44409308 0.065435082 -0.042603247 4799
-0.44228527 0.070723683 -0.042424276 4721
-0.44913921 0.077490643 -0.043856069 5004
-0.44815445 0.082996435 -0.043856069 4540
-0.44710222 0.088489726 -0.043856069 4944
-0.44502008 0.093766034 -0.043677092 4366
-0.44383594 0.099220052 -0.043677092 4298
-0.4387559 0.10375024 -0.042961195 4182
-0.46226397 0.11533941 -0.047614522 2746
-0.46081376 0.12100343 -0.047614522 2659
-0.46688011 0.12874763 -0.049046315 2529
-0.46715492 0.1350151 -0.049404256 2417
-0.46734595 0.14130864 -0.049762204 2333
-0.47683206 0.15059738 -0.051909894 2199
-0.47681653 0.15705454 -0.052267842 1948
-0.47578371 0.16321394 -0.05244682 1753
-0.47374502 0.16904026 -0.05244682 1741
-0.47255719 0.17518379 -0.05262579 1712
-0.47312573 0.18203156 -0.053162709 1599
-0.47451055 0.18928473 -0.053878605 1492
-0.475788 0.19659907 -0.054594502 1213
-0.47333962 0.20242292 -0.054594502 1118
-0.47081989 0.20821628 -0.054594502 1128
-0.46822932 0.21397829 -0.054594502 1129
-0.46645766 0.22012861 -0.05477348 1089
-0.46725807 0.22756194 -0.055489376 1039
-0.46794578 0.2350478 -0.056205265 1024
-0.46851954 0.24258456 -0.056921162 972
-0.46811056 0.24970682 -0.057458088 968
-0.46673501 0.25638103 -0.057816036 971
-0.46526584 0.26305902 -0.058173984 978
-0.46370283 0.26973933 -0.058531933 918
-0.46204564 0.2764208 -0.058889881 897
-0.45945641 0.28258604 -0.059068851 875
-0.45595407 0.288203 -0.059068851 888
-0.44990882 0.29216725 -0.058531933 839
-0.4454715 0.29711983 -0.058352955 783
-0.44584849 0.30534661 -0.059247829 840
-0.44528559 0.31306058 -0.059963718 830
-0.43662575 0.31504381 -0.058889881 775
-0.4327268 0.32037815 -0.058889881 728
-0.4342441 0.32983381 -0.060142696 714
-0.43404222 0.33816388 -0.061037563 617
-0.44215089 0.35329977 -0.063901149 581
-0.44690925 0.36618784 -0.066048838 546
-0.44765207 0.37607801 -0.067301653 556
-0.46311978 0.39889181 -0.072133951 737
-0.45597854 0.40259004 -0.071597025 1690
-0.45610723 0.41277972 -0.072849847 1089
-0.44235668 0.4103114 -0.070702158 735
-0.44655237 0.42452717 -0.073028818 588
-0.44623885 0.43478426 -0.074281633 588
-0.44643593 0.44579244 -0.075713426 503
-0.44299328 0.45334965 -0.076250352 563
-0.44418144 0.46587652 -0.078040086 514
-0.45115513 0.48498648 -0.08144059 441
-0.45574236 0.50214899 -0.084304176 443
-0.45541212 0.51433659 -0.08591494 469
-0.45677862 0.5288254 -0.088062622 449
-0.45722339 0.54267108 -0.090031348 474
-0.45614764 0.5550853 -0.091642104 445
-0.45852435 0.57216209 -0.094326712 508
-0.45812774 0.58627683 -0.096295424 535
-0.45685694 0.59968388 -0.098085172 603
-0.45180815 0.60840577 -0.098801069 580
-0.44546092 0.6154989 -0.09915901 663
-0.4310751 0.61126715 -0.09701132 358
-0.43634522 0.63516909 -0.10112772 117
-0.50177419 0.75008583 -0.12511024 72
-0.53277749 0.81803435 -0.13853326 61
-0.53270131 0.84030265 -0.14193377 48
-0.5424816 0.87944102 -0.14891377 57
-0.54227251 0.90375221 -0.15267223 53
-0.5415467 0.92818803 -0.15643066 79
-0.53836125 0.94931549 -0.15947324 66
-0.52856904 0.95929801 -0.16018912 73
-0.51907665 0.97005028 -0.161084 90
-0.50486755 0.97198087 -0.16018912 56
-0.49422917 0.98073941 -0.16072604 79
-0.48129353 0.98496222 -0.16036808 87
-0.47043255 0.99346232 -0.16090503 107
-0.45656657 0.99558276 -0.16018912 107
-0.44511247 1.0029094 -0.16054708 113
-0.43199626 1.0064876 -0.16018912 124
-0.40944427 0.98717219 -0.15535682 275
-0.40058812 1.0003437 -0.15696758 312
-0.38934475 1.0079378 -0.15750453 381
-0.37763229 1.014484 -0.15786245 425
-0.36183903 1.0097787 -0.15607274 582
-0.34845978 1.0113522 -0.15553579 1110
-0.33571398 1.0146179 -0.15535682 645
-0.32383224 1.020537 -0.15571478 916
-0.30985579 1.0197268 -0.15481991 629
-0.29430345 1.0130585 -0.15285119 479
-0.28053698 1.011853 -0.15195632 441
-0.26634288 1.0085601 -0.15070352 359
-0.25346789 1.0098439 -0.15034556 393
-0.23991933 1.0080922 -0.14945069 387
-0.2262364 1.005201 -0.14837685 344
-0.21286467 1.003089 -0.14748198 328
-0.19938691 0.99983615 -0.14640814 391
-0.18656179 0.99930596 -0.14587122 356
-0.17361149 0.9976427 -0.14515531 398
-0.16135581 0.99969804 -0.14515531 423
-0.14864242 0.99868333 -0.14461839 462
-0.13637586 1.0004323 -0.14461839 412
-0.12384766 1.0000776 -0.14426044 456
-0.11145729 1.0005442 -0.14408147 459
-0.099170677 1.0018365 -0.14408147 552
-0.087376252 1.0088594 -0.14515531 772
-0.073539749 0.99023211 -0.14157584 589
-0.061382532 0.99106002 -0.14157584 474
-0.048780635 0.98289466 -0.13996506 625
-0.036388453 0.97457051 -0.1383543 689
-0.024668755 0.98477936 -0.14014405 516
-0.012569959 0.98402405 -0.13996506 450
-0.00049481197 0.99591053 -0.14211276 425
0.012001799 1.0184685 -0.14622915 318
0.025027901 1.0398829 -0.15016657 266
0.039231203 1.0788251 -0.15732554 215
0.054393824 1.1175693 -0.1644845 182
0.071235649 1.1678822 -0.17379114 127
0.10839923 1.4769782 -0.23034692 143
0.13503069 1.5745404 -0.24842328 415
0.1545352 1.5747229 -0.24878123 403
0.17406452 1.5746638 -0.24913919 397
0.19373593 1.5753386 -0.24967611 387
0.21358238 1.5767422 -0.25039199 407
0.23378088 1.5798419 -0.25146583 421
0.25408751 1.5826823 -0.25253969 428
0.27466699 1.5862308 -0.25379249 450
0.29519165 1.5885441 -0.25486633 446
0.3152388 1.5876971 -0.25540325 438
0.33469856 1.583709 -0.25540325 433
0.35410789 1.5794826 -0.25540325 402
0.37300947 1.5731037 -0.25504532 433
0.38917938 1.5560007 -0.25271866 360
0.32653379 1.2409543 -0.19437313 357
0.3409507 1.234009 -0.19383621 376
0.35579431 1.2287872 -0.19365725 365
0.37027562 1.2224455 -0.19329929 408
0.38435796 1.2149957 -0.19276237 404
0.39893034 1.2092533 -0.19258341 433
0.41373971 1.2042668 -0.19258341 450
0.42749274 1.1963198 -0.19204649 480
0.44179851 1.1900615 -0.1918675 432
0.45707712 1.1863861 -0.19222546 438
0.47269714 1.1834285 -0.19276237 473
0.48718405 1.1775388 -0.19276237 428
0 0 0 176
0 0 0 147
0 0 0 138
0 0 0 161
0 0 0 168
0 0 0 184
0 0 0 308
0 0 0 463
0 0 0 492
0 0 0 493
0 0 0 471
0 0 0 437
0 0 0 350
0 0 0 374
0 0 0 337
1.0223395 1.5310957 -0.29585138 342
1.0510685 1.5330387 -0.29907289 313
1.0805643 1.5353096 -0.3024734 333
1.1102722 1.5370849 -0.3058739 317
1.1407709 1.5391506 -0.3094534 297
1.1702945 1.5391307 -0.31267491 290
1.200593 1.5393914 -0.31607541 358
1.2304574 1.53837 -0.31929696 331
1.2617244 1.5383664 -0.32287642 293
1.2931746 1.5378249 -0.32645592 270
1.3447186 1.5598377 -0.3355836 422
1.3598491 1.5387957 -0.33450973 373
1.3925033 1.5373027 -0.33826819 280
1.4166199 1.5258659 -0.33969998 306
1.4562662 1.5304583 -0.34524816 826
1.4721894 1.5096555 -0.34453228 218
1.5059079 1.5067827 -0.3484697 195
1.5637146 1.5266713 -0.35849226 291
1.6001434 1.5243293 -0.3629666 197
1.6446759 1.528687 -0.36940965 206
1.6815343 1.5249093 -0.37388399 213
1.7214928 1.5230618 -0.37907425 219
1.761656 1.5204601 -0.3842645 182
1.8072804 1.5215341 -0.39070755 190
1.8463484 1.5160956 -0.39553985 184
1.8855519 1.509925 -0.40037215 193
