# .PCD v0.7 - Point Cloud Data file format
VERSION 0.7
FIELDS x y z intensity
SIZE 4 4 4 4
TYPE F F F F
COUNT 1 1 1 1
WIDTH 1307
HEIGHT 1
VIEWPOINT 0 0 0 1 0 0 0
POINTS 1307
DATA ascii
1.6347957 1.5165989 0.15183252 346
1.6740049 1.5151981 0.15329304 339
1.7216531 1.520336 0.15532735 295
1.7621124 1.5180072 0.15684004 328
1.8088843 1.520054 0.15877002 271
1.8497909 1.5161107 0.16028272 285
1.8939892 1.513885 0.16200405 239
1.9360454 1.5089571 0.1635689 236
1.9862105 1.5092679 0.16565536 278
2.0495055 1.5180871 0.16857642 233
2.0955017 1.5127082 0.17034991 219
2.1465693 1.5098752 0.17243639 194
2.1995256 1.507143 0.17462717 199
2.2710018 1.5155379 0.17796552 166
2.3153808 1.5044332 0.17958254 188
2.369951 1.4988747 0.18182547 188
2.4323804 1.4969136 0.18453789 150
2.4959686 1.4941553 0.18730246 103
2.5546713 1.4870412 0.18975405 121
2.6352937 1.4910104 0.1935097 107
2.7207632 1.4956263 0.19752614 107
2.7855942 1.4870685 0.20029071 96
2.8479581 1.475762 0.20289879 125
2.9523849 1.4842417 0.20795847 125
3.036793 1.4803028 0.21181844 103
3.1206362 1.4740843 0.21562624 130
3.2311058 1.4780822 0.22094673 118
3.3056085 1.4634023 0.22418074 95
3.4114382 1.4604856 0.22918826 111
3.5472071 1.4674107 0.23586497 79
3.6261489 1.4482347 0.23930763 95
2.6969619 1.0386163 0.18631138 38
2.7010794 1.0023119 0.18584193 94
2.7047129 0.9660635 0.18537247 106
2.7569723 0.94676292 0.18761542 158
2.8044176 0.92475748 0.18959756 22
5.0157518 1.5869229 0.31014317 16
5.1351953 1.5556756 0.31562012 46
5.3677931 1.5545344 0.32725218 127
5.3903155 1.489611 0.32746083 151
5.3869438 1.4177552 0.32631329 151
5.6102796 1.4031953 0.33742371 37
5.8214064 1.3803618 0.34785604 50
6.1253576 1.3733233 0.36324373 204
6.1691055 1.3038393 0.36470425 194
6.1484008 1.2208337 0.36277428 179
6.165864 1.1458393 0.36293077 192
6.1528945 1.0654829 0.36152241 232
6.1655059 0.98989719 0.36152241 197
6.1445899 0.90933186 0.35980105 274
6.1394534 0.83171189 0.35896647 287
6.1472154 0.75606447 0.35886216 287
6.1441197 0.67925274 0.35823622 335
6.146029 0.60321736 0.35792324 460
6.1270995 0.52552706 0.35656705 475
6.1241236 0.44963869 0.35609758 515
6.1222034 0.37402481 0.35573244 534
6.1203475 0.29857472 0.35541949 508
6.1225524 0.22340953 0.35536733 608
6.1138511 0.14799169 0.35479355 590
6.1112127 0.072905771 0.3545849 597
6.1036582 -0.0020924823 0.35416761 608
6.1001773 -0.076956376 0.35401112 673
6.0977755 -0.15178448 0.35395896 685
6.0994453 -0.22674976 0.35416761 311
6.0862288 -0.30109075 0.35364598 540
6.0900497 -0.3762466 0.35406327 369
6.0521083 -0.44852316 0.35234195 267
6.079977 -0.52567637 0.35411546 185
6.0840006 -0.60132587 0.35468921 466
6.0811257 -0.67649174 0.35495004 445
6.0842595 -0.75253427 0.35557598 401
6.0884199 -0.82902461 0.35630623 355
6.0748248 -0.90323633 0.35614976 322
6.0780721 -0.98009765 0.35693216 30
6.0734587 -1.0559783 0.35734946 48
6.0737877 -1.1329906 0.35807973 37
6.0682411 -1.2091948 0.35854918 46
6.0763917 -1.2885379 0.35980105 228
6.0805836 -1.3676054 0.36089647 402
6.0750022 -1.4448913 0.36152241 408
6.0635939 -1.5210317 0.36188754 378
6.0579915 -1.5988922 0.36261779 401
6.054275 -1.6776429 0.36350453 486
6.0514545 -1.7570994 0.36449561 478
6.0409036 -1.8347083 0.36512154 485
6.044589 -1.9171499 0.3665821 456
6.036727 -1.9965097 0.36746883 443
6.0448213 -2.0818148 0.36929449 496
6.0225797 -2.1571836 0.36950314 547
6.0312228 -2.2441549 0.37148526 578
6.0339746 -2.3298633 0.37320662 629
6.0244002 -2.4115241 0.374302 624
6.020185 -2.4959757 0.37576252 596
6.0102119 -2.5787172 0.37696224 548
6.0109792 -2.6668515 0.37884006 572
6.0068517 -2.7537267 0.38050926 476
6.016839 -2.848161 0.38306516 449
5.9922028 -2.9270406 0.3836911 404
5.7988515 -2.9213057 0.37451065 136
5.6189756 -2.9177189 0.36606047 150
5.4312758 -2.9054596 0.35708866 131
5.2674909 -2.9015687 0.34947306 110
5.1046391 -2.8941057 0.34185746 123
4.9686637 -2.8981836 0.3358067 124
4.8085346 -2.8844757 0.32824326 91
4.6860638 -2.8898184 0.32292277 89
4.5380464 -2.8760309 0.31598526 100
4.4228969 -2.8797557 0.31102991 89
4.2942362 -2.8716614 0.30518782 101
4.1853919 -2.8738494 0.30054542 75
4.070621 -2.8692048 0.29548573 114
3.9590344 -2.8639395 0.29058254 125
3.8393788 -2.8498311 0.28510556 79
3.7492862 -2.855 0.28150642 112
3.6439099 -2.8461027 0.27686402 110
3.5603755 -2.8519089 0.27362999 107
3.457958 -2.8402581 0.26909193 155
3.383878 -2.8496821 0.26643169 129
3.2662406 -2.8198814 0.26074606 104
3.1984777 -2.8306394 0.25845096 117
3.1065331 -2.818028 0.2544345 134
3.0351398 -2.8219483 0.25182644 147
2.9460449 -2.8073282 0.2479143 149
2.8856456 -2.8181581 0.24603648 142
2.8077769 -2.8102758 0.24285462 157
2.7423971 -2.813066 0.2405595 159
2.668426 -2.8052757 0.23758629 151
2.605938 -2.8078079 0.23544766 163
2.5471466 -2.8129339 0.23356985 171
2.2882211 -2.5903337 0.21588704 95
2.2556093 -2.6174624 0.21583489 156
2.1661065 -2.5769291 0.21119249 49
2.0849144 -2.5430961 0.20712389 99
2.0448151 -2.5575731 0.20639363 142
2.053818 -2.6344399 0.20983629 91
2.0570042 -2.7063408 0.21291383 117
1.8749467 -2.5308285 0.19987342 149
1.8203534 -2.5212688 0.19778694 188
1.7766286 -2.5254529 0.19663939 171
1.3015428 -1.8997521 0.15564032 159
1.2731396 -1.9081072 0.15517087 167
1.2381948 -1.9060063 0.15407547 165
1.2024267 -1.9016503 0.15287575 144
1.1711437 -1.9035087 0.15209334 172
1.1194667 -1.870622 0.14922445 87
1.0979351 -1.8868072 0.14938092 56
1.0761747 -1.9027455 0.14953741 37
1.0397464 -1.8921849 0.14812905 28
1.0136243 -1.8995169 0.14781608 33
0.98701966 -1.9056071 0.14745094 41
0.96041852 -1.9113314 0.14708582 34
0.92200327 -1.8924577 0.14531231 119
0.90468621 -1.9162691 0.14604257 112
0.8931585 -1.9535586 0.14755526 128
0.89986384 -2.033762 0.15151955 86
0.89096469 -2.0822861 0.15365818 100
0.89208627 -2.1576507 0.1573095 80
0.88370419 -2.2138729 0.15986542 103
0.90532976 -2.3512723 0.1669594 96
0.92649126 -2.4970059 0.17447069 93
0.90418661 -2.5316951 0.17577472 110
0.91201752 -2.6559248 0.18203412 159
0.89469892 -2.7133825 0.18459004 163
0.86947334 -2.7498629 0.18599841 214
0.83450389 -2.7565029 0.18578976 232
0.79672253 -2.7531078 0.1850595 268
0.75835228 -2.746315 0.18417275 240
0.72204995 -2.7457571 0.18365113 246
0.6805408 -2.7234113 0.18198197 294
0.646608 -2.7296143 0.18187764 271
0.61043888 -2.7256505 0.1812517 336
0.57425815 -2.7202351 0.1805736 372
0.53363043 -2.6908367 0.17864361 331
0.50330913 -2.7119093 0.17942604 417
0.47169778 -2.7277212 0.17994766 303
0.43612853 -2.7204864 0.17926955 291
0.40066183 -2.7118037 0.17853929 286
0.36668241 -2.7115684 0.17827849 292
0.33289129 -2.7118995 0.17806984 287
0.29958707 -2.7157805 0.17806984 321
0.26486945 -2.705338 0.17733958 370
0.23165087 -2.7083852 0.17733958 351
0.19839737 -2.7110238 0.17733958 361
0.16474748 -2.7072737 0.17702661 351
0.13126843 -2.7041044 0.1767658 376
0.098111629 -2.7065094 0.17681795 385
0.064866848 -2.7065113 0.1767658 447
0.031661011 -2.708102 0.17681795 383
-0.0015725812 -2.6992991 0.17634851 399
-0.034634978 -2.6940837 0.17608769 397
-0.06781622 -2.6984475 0.17634851 414
-0.10051921 -2.6864347 0.17577472 334
-0.13446139 -2.704947 0.17681795 425
-0.1672768 -2.6971128 0.17650498 422
-0.20036192 -2.6948571 0.17650498 413
-0.23358853 -2.6941853 0.17660931 415
-0.26643667 -2.6891284 0.17650498 383
-0.29644033 -2.6588581 0.17509663 105
-0.10542988 -0.8442623 0.079797268 83
-0.11470596 -0.83498871 0.079379976 81
-0.12435719 -0.82956702 0.07917133 90
-0.13325755 -0.82009095 0.078754038 64
-0.14279866 -0.81544226 0.078597546 94
-0.15352641 -0.81755543 0.078806199 137
-0.16393746 -0.81756872 0.078910522 167
-0.17768355 -0.83308047 0.079849429 428
-0.18789335 -0.83083737 0.079849429 555
-0.19876753 -0.83138382 0.080005914 554
-0.20919771 -0.82985067 0.080058075 529
-0.2201295 -0.83011794 0.08021456 441
-0.23029976 -0.82735401 0.08021456 379
-0.2468359 -0.84652448 0.081414282 267
-0.25430515 -0.83387578 0.080892667 123
-0.26482067 -0.83164424 0.080944821 124
-0.27970728 -0.84255469 0.081727251 89
-0.64948851 -1.8834218 0.13941805 40
-0.6738984 -1.8790705 0.1396267 132
-0.69272971 -1.8594272 0.13900076 164
-0.71405739 -1.8470596 0.13879211 155
-0.73666984 -1.838158 0.13879211 143
-0.75725996 -1.8243667 0.1385313 175
-0.78549463 -1.8287036 0.13931373 117
-1.1681744 -2.6314108 0.18573761 235
-1.2066178 -2.6304953 0.18652003 301
-1.2409428 -2.6200035 0.18678084 253
-1.2835166 -2.6261153 0.18803272 358
-1.3205868 -2.6199782 0.1886065 294
-1.3590794 -2.6159842 0.18933676 286
-1.3863702 -2.5903029 0.18881515 270
-1.4021579 -2.5442264 0.18709381 30
-1.4199802 -2.5033698 0.18568544 71
-1.439025 -2.4659135 0.18448572 205
-1.4871507 -2.4780457 0.18631138 85
-4.6289921 -7.5075994 0.49604732 25
-4.7784882 -7.5413404 0.50168079 41
-1.7059047 -2.6191607 0.19862154 46
-1.7595601 -2.6304092 0.20065583 32
-1.8182659 -2.6473176 0.20310743 44
-1.8690205 -2.6509297 0.20477661 47
-1.9183791 -2.651263 0.20628931 40
-1.9775453 -2.6636128 0.20863657 32
-2.0258081 -2.6598058 0.20999278 42
-2.0748875 -2.6559997 0.21140113 37
-2.1279206 -2.6560636 0.21312247 56
-2.1755617 -2.6482754 0.21437436 51
-2.2361915 -2.6549959 0.21666947 81
-2.2790425 -2.6394517 0.21750405 96
-2.3291252 -2.6314821 0.21891242 73
-2.3974628 -2.6426532 0.22172914 68
-2.4487457 -2.6335173 0.22318968 52
-2.5077384 -2.6314721 0.22522399 30
-2.5537925 -2.6147933 0.22626722 21
-2.6111128 -2.6086748 0.22814503 18
-1.399067 -1.3631054 0.13738374 18
-1.4070086 -1.3375722 0.13675781 12
-1.3991687 -1.2977798 0.13503647 14
-1.4157292 -1.2811825 0.13508862 15
-1.4051571 -1.240564 0.13326298 19
-1.3862424 -1.1938796 0.1309157 21
-1.3893254 -1.1671357 0.13013327 21
-0.51413614 -0.42030832 0.070043042 52
-1.4011748 -1.1195867 0.12903787 24
-0.42981213 -0.33385137 0.063783638 137
-0.43864566 -0.33217916 0.064096607 287
-0.46033752 -0.33985612 0.065244168 666
-0.46285453 -0.33301172 0.065139845 800
-0.46445656 -0.32558203 0.064983353 805
-0.46676987 -0.31872824 0.06487903 866
-0.47064602 -0.31297627 0.06487903 859
-0.48449728 -0.3137106 0.065504976 1215
-0.49084187 -0.30934387 0.06566146 720
-0.48694855 -0.29858345 0.065192007 1527
-0.49057597 -0.2925854 0.065192007 1558
-0.48377499 -0.28051057 0.064566061 912
-0.48022908 -0.27061605 0.064148769 1108
-0.48263881 -0.26422113 0.064096607 1179
-0.48056012 -0.25545478 0.063783638 1306
-0.47922623 -0.24723946 0.063522831 1320
-0.48311627 -0.24178886 0.063574992 1514
-0.47886688 -0.23233901 0.0631577 1622
-0.47716784 -0.22431092 0.062896892 1705
-0.47443661 -0.21594411 0.062583923 1823
-0.47522476 -0.20929666 0.0624796 1882
-0.47133192 -0.20069596 0.062114466 2103
-0.47375929 -0.19489688 0.062114466 2269
-0.47518799 -0.18869777 0.062062304 2372
-0.47001359 -0.17997818 0.061645009 2514
-0.4721868 -0.17419684 0.061645009 2699
-0.46770677 -0.16603525 0.061279878 2891
-0.47065341 -0.16060801 0.06133204 3029
-0.43845066 -0.14354831 0.059454221 3163
-0.45065179 -0.14147297 0.060028002 4497
-0.42941758 -0.12897828 0.058776118 3417
-0.43384552 -0.12453294 0.058932602 3531
-0.44977865 -0.12319266 0.059715029 4820
-0.44932514 -0.11715516 0.059610706 4945
-0.43619779 -0.1079949 0.058828279 4537
-0.42971697 -0.1007892 0.058410987 4178
-0.43579349 -0.096601591 0.058671795 5115
-0.43987715 -0.091866501 0.058828279 4844
-0.44195092 -0.086656287 0.058880441 5425
-0.43021768 -0.078852005 0.058202341 5150
-0.41639349 -0.07100796 0.057419918 4406
-0.42019144 -0.066368297 0.057576403 4584
-0.41307142 -0.060035869 0.057159111 4090
-0.4127875 -0.054828078 0.057106949 4090
-0.44514593 -0.053665373 0.058776118 5997
-0.40805331 -0.044021726 0.056793977 4090
-0.4383781 -0.041942928 0.058358826 5377
-0.45179442 -0.037672069 0.059036925 6306
-0.43031192 -0.03051215 0.057889372 5554
-0.39975414 -0.023335624 0.056272358 4089
-0.40898737 -0.018867906 0.056741815 4329
-0.41617391 -0.014103815 0.057106949 4934
-0.44926089 -0.0097993854 0.058828279 6651
-0.42238608 -0.0039587626 0.057419918 5079
-0.47647506 -0.0011527103 0.057261959 949
-0.47645333 0.004694459 0.057261959 878
-0.47635984 0.010540921 0.057261959 855
-0.47719291 0.016422587 0.057307668 916
-0.47595769 0.022228202 0.057261959 869
-0.47564906 0.028067261 0.057261959 830
-0.47427261 0.033828586 0.057216246 884
-0.47282648 0.039560366 0.057170533 865
-0.47131127 0.045261752 0.057124823 844
-0.47270608 0.051262315 0.057216246 808
-0.47501576 0.057426207 0.057353381 720
-0.46932596 0.062578745 0.057124823 865
-0.47148708 0.06877318 0.057261959 784
-0.47159392 0.074712589 0.057307668 817
-0.47457853 0.081177361 0.057490516 714
-0.47649285 0.087543666 0.057627652 699
-0.47342315 0.092994563 0.057536229 727
-0.47126904 0.09859027 0.057490516 708
-0.46709967 0.10370936 0.057353381 717
-0.46481991 0.10920275 0.057307668 645
-0.46538284 0.11538407 0.057399094 629
-0.46682972 0.12185021 0.057536229 645
-0.46915033 0.12863559 0.057719074 552
-0.4704147 0.13521783 0.05785621 558
-0.47063184 0.14156038 0.057947632 592
-0.46885923 0.14732508 0.057947632 615
-0.46606749 0.15275425 0.057901919 550
-0.46321326 0.15813711 0.05785621 541
-0.46217835 0.1641461 0.057901919 531
-0.46387464 0.17119768 0.058084767 541
-0.46733087 0.17903449 0.058359038 551
-0.46973631 0.18661061 0.058587596 519
-0.46741098 0.19236095 0.058587596 492
-0.46501517 0.19808233 0.058587596 544
-0.46163616 0.20336902 0.058541887 496
-0.46001396 0.20943472 0.058587596 524
-0.46102133 0.21677254 0.058770441 507
-0.46191743 0.22416635 0.058953293 537
-0.4627009 0.23161456 0.059136137 514
-0.46071047 0.23773526 0.059181847 532
-0.4595204 0.24431282 0.059273273 524
-0.45823798 0.25089684 0.059364695 474
-0.4586013 0.25847083 0.059547544 505
-0.45798406 0.26558819 0.059684679 543
-0.45640406 0.27221552 0.059776101 546
-0.45302919 0.27779585 0.059776101 486
-0.45043007 0.28386873 0.059821814 482
-0.45193666 0.29264349 0.060096081 501
-0.45329496 0.30149746 0.060370352 503
-0.45285586 0.30929801 0.060553201 522
-0.45229307 0.31713286 0.060736045 460
-0.44998652 0.32382971 0.060827471 481
-0.4467811 0.32992244 0.060873181 465
-0.44349375 0.33598515 0.06091889 477
-0.44169986 0.34324607 0.061056025 490
-0.44057408 0.35113743 0.061238874 457
-0.43932065 0.35905251 0.061421722 475
-0.43564579 0.36505979 0.061467431 437
-0.43113315 0.37037835 0.061467431 465
-0.42730391 0.37630287 0.061513145 439
-0.44855958 0.40499875 0.063113056 612
-0.45599768 0.42203119 0.063890152 1311
-0.43848535 0.41588497 0.063113056 444
-0.43763855 0.42542055 0.063387319 475
-0.43591681 0.43429089 0.063615881 411
-0.43613562 0.44532755 0.063981578 491
-0.43408194 0.45426363 0.064210132 582
-0.43867284 0.4705348 0.064895809 296
-0.43353647 0.47662273 0.064941525 365
-0.43493369 0.49013907 0.06544435 374
-0.41975152 0.48484942 0.06480439 788
-0.42406037 0.50219405 0.065535769 292
-0.43751085 0.53129882 0.066952839 278
-0.4465628 0.55612606 0.068095624 305
-0.44769406 0.5718022 0.068689883 306
-0.44669208 0.58520323 0.069146998 300
-0.44840297 0.60267645 0.069832668 318
-0.44799548 0.61784911 0.070381209 349
-0.44613168 0.63146764 0.070838332 349
-0.44456533 0.64595598 0.071341157 310
-0.44437459 0.6629914 0.071981117 319
-0.44492099 0.68179244 0.072712511 312
-0.44667482 0.70323658 0.073581032 282
-0.44953987 0.72737551 0.074586689 288
-0.45187804 0.75168777 0.075592346 263
-0.4546915 0.77789038 0.076689422 228
-0.45594338 0.80253375 0.077695087 258
-0.45424893 0.82294619 0.078472182 293
-0.44788301 0.83550662 0.078837872 199
-0.44587702 0.85690093 0.079660684 189
-0.44341213 0.87836945 0.080483496 225
-0.44223884 0.90349501 0.081489153 227
-0.43795168 0.92330283 0.082220539 253
-0.43074811 0.93768996 0.082677662 1670
-0.42649516 0.95934397 0.083500467 244
-0.42216805 0.98195052 0.084368989 322
-0.41543791 0.99997813 0.085008949 2084
-0.40350625 1.0059284 0.085054666 594
-0.39077207 1.0098724 0.085008949 511
-0.3776539 1.012719 0.08491753 807
-0.36452481 1.0153959 0.084826112 748
-0.35138696 1.0179034 0.084734678 601
-0.33542264 1.0117049 0.084231853 499
-0.3217755 1.0119357 0.084049009 500
-0.30527383 1.002425 0.083409041 431
-0.2912803 1.000339 0.08313477 364
-0.2781834 1.0009499 0.082997635 372
-0.26537013 1.0023563 0.082906216 424
-0.25280699 1.0045682 0.0828605 354
-0.23953718 1.0037073 0.082677662 348
-0.22567014 0.99974835 0.082357675 348
-0.21235035 0.99755585 0.082129121 321
-0.19950822 0.99714732 0.081991985 380
-0.18634251 0.99461013 0.081763424 362
-0.17378157 0.99485338 0.081671998 429
-0.16219477 1.0008562 0.08185485 385
-0.14946087 0.99980676 0.081717715 440
-0.1369116 0.99958581 0.081626289 492
-0.12426805 0.99821627 0.081489153 519
-0.11167879 0.99668759 0.081352018 525
-0.10080999 1.011901 0.081991985 349
-0.087185219 0.9991281 0.081352018 665
-0.07469742 0.99713403 0.081214882 683
-0.062210478 0.99398726 0.081032038 660
-0.049910054 0.99268031 0.080940612 747
-0.037467353 0.98623019 0.080620632 608
-0.025288491 0.98361963 0.080483496 535
-0.013289481 0.98984915 0.080757767 388
-0.001141334 0.99792939 0.081123456 469
0.011190845 1.0048604 0.081443444 365
0.023913784 1.0206258 0.08217483 467
0.036399841 1.0192574 0.082129121 344
0.051013596 1.061637 0.084094718 206
0.070533186 1.1666209 0.088940158 119
0.086828865 1.1925663 0.090174377 84
0.13334827 1.561651 0.10717912 503
0.15250207 1.5598971 0.10717912 587
0.17130254 1.5549296 0.10704198 292
0.19086026 1.5566761 0.10722484 212
0.21048653 1.5581762 0.10740769 186
0.2298851 1.5574522 0.10749911 182
0.24929756 1.5564865 0.10759053 213
0.26855004 1.5542941 0.10763624 158
0.28815201 1.5538279 0.10777338 169
0.30797783 1.5540937 0.10795622 198
0.32826725 1.5560611 0.10823049 193
0.34908897 1.559713 0.10859619 177
0.36889526 1.5582275 0.10873333 205
0.38871756 1.5564904 0.10887046 191
0.40804344 1.5525688 0.10891616 176
0.4267987 1.546482 0.10887046 170
0.45242223 1.5641541 0.10996754 280
0.47071275 1.5556166 0.10983041 549
0.49097395 1.5535322 0.11001325 584
0.51156807 1.552133 0.1102418 609
0.53252655 1.551406 0.11051607 576
0.55421704 1.5522786 0.11088178 594
0.57600874 1.5528516 0.11124747 617
0.59825718 1.5540543 0.11165887 585
0.62062126 1.5549433 0.11207028 537
0.64271456 1.5545936 0.11243597 586
0.6656794 1.5557708 0.11289309 551
0.68755484 1.5538775 0.11321306 557
0.70906764 1.5507724 0.11348733 558
0.73103446 1.5482755 0.11380732 596
0.75304639 1.5454721 0.11412731 602
0 0 0 602
0 0 0 574
0 0 0 536
0 0 0 622
0 0 0 578
0 0 0 584
0 0 0 586
0 0 0 600
0.97331804 1.5391368 0.1187899 563
0 0 0 568
1.0285574 1.5413656 0.12025267 538
0 0 0 498
0 0 0 474
1.1085871 1.5356565 0.12212685 507
1.13687 1.5347744 0.12285824 467
1.1646919 1.5326325 0.1235439 452
1.1932456 1.5308248 0.1242753 460
1.2281712 1.5363441 0.1254638 569
1.2564383 1.5327396 0.12614948 513
1.2854434 1.5294355 0.12688087 531
1.3184704 1.5301869 0.12788652 488
1.3530307 1.5318521 0.1289836 450
1.3817899 1.5262355 0.12966928 485
1.4160531 1.5259968 0.13072065 463
1.4477605 1.5222509 0.13158917 454
1.4886572 1.527249 0.13305195 386
1.5263591 1.5279374 0.13428615 358
1.5585792 1.5223465 0.13515468 396
1.596678 1.5217034 0.1363889 375
1.634261 1.5196718 0.1375774 391
1.6749923 1.5196277 0.13894875 349
1.7241975 1.5260886 0.14082293 331
1.7670009 1.5256943 0.1422857 299
1.806993 1.5219036 0.14356562 318
1.8486997 1.5186256 0.14493698 271
1.8905944 1.5145507 0.14630833 270
1.9342389 1.5109024 0.14777111 254
1.9812553 1.5088274 0.14941673 309
2.0341239 1.5099883 0.15138233 300
2.0873144 1.5100751 0.15334794 272
2.1440752 1.5113808 0.15549639 228
2.1937628 1.5064305 0.15723343 240
2.2502921 1.5049248 0.15933616 225
2.3054342 1.5011654 0.16134748 233
2.3667254 1.5000166 0.16367877 171
2.4257774 1.4960133 0.16587293 183
2.4876521 1.4923235 0.16820423 139
2.5584257 1.4923664 0.17099264 163
2.6391284 1.4963086 0.17428388 113
2.7106767 1.493191 0.1770723 113
2.7807758 1.4875965 0.17976929 118
2.8546851 1.4823426 0.18264912 129
2.9601061 1.4912134 0.18712887 122
3.0293543 1.4797499 0.18973443 132
3.1204324 1.4770579 0.19343708 128
3.2355034 1.4831635 0.19832823 90
3.3064296 1.4668254 0.20097952 118
3.4150791 1.4651024 0.20550497 121
3.5352452 1.4655151 0.21057896 116
3.6447899 1.4587418 0.21510442 136
3.7341824 1.4415861 0.21862422 80
2.6757064 0.99576235 0.16610149 184
2.7046547 0.96890962 0.1669243 183
2.7767971 0.95644319 0.16984984 172
2.8196268 0.93263561 0.17135833 181
5.0164251 1.5902957 0.27626666 39
5.1235094 1.5552931 0.28047216 66
5.3743925 1.5596288 0.29153439 150
5.393127 1.4935594 0.29153439 207
5.3926954 1.4224278 0.29066586 218
5.5909524 1.40153 0.29921395 60
5.8536277 1.391206 0.31077901 76
6.1266022 1.376826 0.32280117 188
6.1606274 1.3052634 0.32362399 262
6.1585455 1.2260571 0.32280117 239
6.1613426 1.148196 0.32225263 277
6.1602049 1.0699389 0.32156697 286
6.1492004 0.99045515 0.32046989 265
6.140141 0.91184282 0.31950995 289
6.1449285 0.83561862 0.31923568 306
6.1438146 0.75880313 0.31873283 327
6.1476994 0.68280143 0.31850427 357
6.1526327 0.6070146 0.31836715 374
6.1317511 0.52906746 0.31708723 385
6.12782 0.45304698 0.3166301 435
6.1329169 0.37781507 0.3166301 425
6.1201301 0.30169338 0.315853 494
6.1253686 0.22664076 0.31594443 545
6.1137066 0.15111308 0.31530446 590
6.1121039 0.076040395 0.31516734 616
6.1005898 0.0010300111 0.3146188 659
6.1001434 -0.073833689 0.3146188 653
6.0927858 -0.14853904 0.31434453 658
6.1064768 -0.22388436 0.3150759 302
6.0922947 -0.29826394 0.31457308 552
6.098146 -0.3736161 0.31503019 291
6.0582333 -0.44584876 0.31343028 299
6.090126 -0.52341676 0.31516734 214
6.0882149 -0.59860224 0.31539589 539
6.0774326 -0.67293859 0.31525874 563
6.0865631 -0.74966884 0.31608155 451
6.085814 -0.82551396 0.31649297 440
6.0821419 -0.90116036 0.31681296 440
6.0686531 -0.97541231 0.31672153 43
6.072958 -1.0527142 0.31749862 34
6.0733314 -1.1297197 0.3181386 32
6.0668488 -1.205723 0.31850427 28
6.0730963 -1.2846339 0.31950995 200
6.0773435 -1.3636602 0.32046989 341
6.0679264 -1.4399825 0.32083559 365
6.0585198 -1.5165216 0.32124698 372
6.0607042 -1.5963564 0.32225263 428
6.0551 -1.6746074 0.32293832 518
6.059998 -1.7562993 0.32417253 544
6.0494609 -1.8340125 0.32472107 507
6.0426884 -1.9132397 0.32549816 522
6.0424681 -1.9950831 0.32664096 567
6.0534258 -2.0814328 0.32837802 637
6.0340114 -2.157917 0.32869798 606
6.0398483 -2.2439837 0.33029789 615
6.0342245 -2.3265619 0.33139497 580
6.0237699 -2.4078548 0.33230922 559
6.0186872 -2.4919169 0.33354342 590
6.0151982 -2.5773959 0.33491477 588
6.0150805 -2.6651866 0.33651468 568
6.0209751 -2.7566891 0.33848029 454
6.0173955 -2.8448904 0.34003448 441
5.9954972 -2.9250913 0.34072018 435
5.809247 -2.9229863 0.3330406 180
5.6266341 -2.9181418 0.32549816 167
5.4432755 -2.9083254 0.31786433 130
5.2767797 -2.9031305 0.31105328 122
5.1121197 -2.8947906 0.30428794 157
4.9735074 -2.8974457 0.29884827 111
4.8176222 -2.886358 0.29244861 146
4.6942425 -2.8912823 0.28774032 125
4.5453176 -2.877053 0.28161493 144
4.4284482 -2.8797717 0.27718091 104
4.30058 -2.8722925 0.27210692 143
4.1752238 -2.8632491 0.26712433 152
4.0679016 -2.8636501 0.2631017 123
3.9498754 -2.8536632 0.25843912 135
3.8503706 -2.8543117 0.25478217 104
3.7601995 -2.8596089 0.25162807 127
3.6610365 -2.8557539 0.24792542 141
3.5570846 -2.8455338 0.24390279 140
3.4670722 -2.8439744 0.24065726 156
3.3883429 -2.8496456 0.2380517 164
3.2721832 -2.821193 0.23316054 140
3.2013962 -2.8293717 0.23096637 151
3.1146231 -2.8214836 0.22776656 182
3.0439024 -2.8261771 0.22552669 170
2.9583488 -2.8150992 0.22232687 173
2.8928368 -2.8211913 0.22036126 177
2.8219748 -2.8204527 0.21802998 216
2.7376192 -2.8041055 0.21478444 208
2.6754501 -2.8085489 0.21295597 191
2.6088293 -2.8067701 0.21080752 185
2.5399766 -2.800823 0.20847623 134
2.3016093 -2.6012845 0.19439703 89
2.2538548 -2.6111784 0.19329995 223
2.1547551 -2.5591445 0.18854593 49
2.0807292 -2.5336556 0.18548325 89
2.0407422 -2.5480795 0.18484329 148
2.0394337 -2.6115198 0.18708315 94
2.0423148 -2.6824613 0.18973443 101
1.8795199 -2.5324025 0.17976929 141
1.8219695 -2.5188434 0.17771226 245
1.7753923 -2.51896 0.17647804 225
1.305812 -1.9013352 0.14100577 94
1.2446432 -1.8607347 0.13789739 39
1.2233497 -1.8783803 0.13803452 35
1.1975349 -1.8890314 0.13780595 45
1.1789795 -1.911239 0.13821736 19
1.1477337 -1.9127104 0.13753168 16
1.0934929 -1.8740028 0.13474327 124
1.0773067 -1.8994493 0.13538323 196
1.0457282 -1.8976486 0.13460614 49
1.0176536 -1.9015282 0.13414901 40
0.99148202 -1.908553 0.13387476 36
0.9643935 -1.9134378 0.13350905 30
0.92725778 -1.8972983 0.132092 96
0.90518647 -1.9112436 0.13222913 149
0.89788735 -1.9576285 0.13401188 118
0.89282221 -2.0114229 0.13616033 138
0.89444017 -2.0837445 0.13922302 103
0.88638622 -2.1370182 0.14132576 103
0.88309139 -2.2052422 0.14415988 93
0.89263195 -2.3109796 0.14882247 77
0.89065611 -2.3929236 0.15229656 94
0.87771344 -2.4497609 0.15453644 68
0.87650555 -2.5444191 0.15860477 80
0.86276227 -2.6081018 0.16116463 96
0.87262392 -2.750865 0.16751856 218
0.83706117 -2.7556305 0.16724429 276
0.79845279 -2.7493846 0.16646719 380
0.76252216 -2.7512739 0.16610149 357
0.72615659 -2.7507641 0.16564438 379
0.68773448 -2.7410569 0.16477585 367
0.65035295 -2.7337389 0.16404447 286
0.61719447 -2.7434633 0.16413589 434
0.57934403 -2.7312846 0.16322166 424
0.53896308 -2.7038968 0.16162175 398
0.50482732 -2.7053969 0.16139318 412
0.47056541 -2.7054822 0.16111891 400
0.4376469 -2.7130258 0.16121034 391
0.40402782 -2.7162158 0.16111891 363
0.37133735 -2.7259185 0.16134748 434
0.33749139 -2.7272959 0.16121034 379
0.30245665 -2.7173321 0.16057038 368
0.26781544 -2.7079151 0.15997612 407
0.23439361 -2.7090073 0.15988471 408
0.20127922 -2.7136722 0.15997612 418
0.16765696 -2.7109523 0.15974757 388
0.13408279 -2.7068188 0.1594733 403
0.10100286 -2.7122538 0.15965615 466
0.067613758 -2.7092943 0.1594733 465
0.03433698 -2.7079222 0.15938188 505
0.0011040665 -2.7061419 0.15929045 500
-0.032030858 -2.6999586 0.15901618 490
-0.065112017 -2.6973646 0.15892476 516
-0.098502249 -2.7043488 0.15929045 506
-0.13143617 -2.6979477 0.15906189 527
-0.16477935 -2.7001197 0.15924475 552
-0.19790156 -2.6978946 0.15924475 458
-0.23116545 -2.6972535 0.15933616 496
-0.26385573 -2.6902368 0.15915331 523
-0.29883152 -2.704668 0.15997612 157
-0.10488029 -0.8596943 0.075089514 55
-0.11165723 -0.83062625 0.073809594 73
-0.12242829 -0.8331461 0.073992431 93
-0.13042106 -0.81777328 0.073352471 64
-0.13839692 -0.80430019 0.072803929 49
-0.1482565 -0.80254138 0.072803929 88
-0.15575486 -0.78890449 0.072255388 84
-0.17390777 -0.8270027 0.074129567 284
-0.18491885 -0.82870501 0.074312419 435
-0.19645944 -0.83220482 0.074586689 515
-0.20787081 -0.83457637 0.074815243 488
-0.2183513 -0.8329286 0.07486096 459
-0.22828974 -0.82922363 0.074815243 414
-0.23872663 -0.82731915 0.07486096 340
-0.2558212 -0.84726971 0.075958043 218
-0.26800948 -0.84978044 0.076232314 169
-0.2802977 -0.85211867 0.076506585 141
-0.27578378 -0.80516279 0.074403837 37
-0.6777339 -1.8974614 0.12765796 162
-0.69748688 -1.8796383 0.12720084 186
-0.71726465 -1.8625494 0.12678944 175
-0.73747033 -1.8471144 0.12646946 175
-0.75931716 -1.8360797 0.12637803 176
-0.78139788 -1.8257053 0.12633233 182
-1.1680971 -2.6378996 0.16747284 167
-1.2041245 -2.6315405 0.16788425 304
-1.2410252 -2.6264992 0.16838707 279
-1.2806119 -2.6263337 0.16916418 336
-1.3172363 -2.6193435 0.16962129 321
-1.3571017 -2.6180558 0.17039838 354
-1.3881853 -2.5994427 0.17030697 338
-1.3963767 -2.53933 0.1680671 43
-1.4254633 -2.5185266 0.16788425 48
-1.4462016 -2.483583 0.16697001 139
-1.482733 -2.4759305 0.16751856 113
-1.6015711 -2.6012754 0.17524382 43
-1.6531471 -2.6126525 0.17693517 41
-1.7019719 -2.6181264 0.17835222 53
-1.7628325 -2.6402342 0.18072923 45
-1.8188362 -2.6529987 0.18264912 45
-1.8725388 -2.6606975 0.18434046 64
-1.9149971 -2.6512814 0.18511756 32
-1.9652411 -2.6516523 0.18648891 38
-2.0169895 -2.652776 0.18795168 28
-2.068444 -2.6522374 0.18936874 32
-2.1201863 -2.6508319 0.19078581 30
-2.1703014 -2.6462357 0.19206573 47
-2.2096863 -2.6278112 0.19256856 41
-1.3817635 -1.6035579 0.13232055 18
-1.3861177 -1.5692691 0.13126919 19
-1.3938656 -1.5395584 0.13049209 19
-1.3956559 -1.5040406 0.12934929 23
-1.3816323 -1.4527973 0.12720084 23
-1.379822 -1.415714 0.12592092 24
-1.3681293 -1.3697145 0.12404674 31
-1.3719648 -1.3402649 0.12322393 31
-1.378903 -1.3143734 0.12262967 29
-1.3517463 -1.2572405 0.11993268 54
-1.3670727 -1.2405579 0.11993268 41
-1.3545039 -1.1992053 0.11824135 51
-1.3698744 -1.1831456 0.11828707 41
-1.3598299 -1.1456656 0.11682428 55
-1.3761034 -1.1307931 0.11696142 34
-1.3820769 -1.1075792 0.11650431 49
-1.3758761 -1.0751714 0.11536151 56
-1.3897617 -1.0588111 0.11540723 54
-0.43578121 -0.32463068 0.060324639 207
-0.44216099 -0.32101405 0.060461774 302
-0.45668468 -0.32304135 0.061056025 393
-0.46061453 -0.31741276 0.061056025 471
-0.46198314 -0.31007153 0.06091889 438
-0.46491608 -0.3038342 0.060873181 412
-0.47789338 -0.3039847 0.061376009 315
-0.48158771 -0.29809731 0.061376009 619
-0.49463487 -0.29781407 0.061878838 1803
-0.47753832 -0.27964985 0.060781758 504
-0.47919574 -0.27278396 0.060690336 568
-0.47900644 -0.26495633 0.060507488 556
-0.47781673 -0.25670379 0.06027893 571
-0.48270437 -0.25174099 0.060370352 458
-0.47951114 -0.24265467 0.060050368 517
-0.4779641 -0.23456135 0.059821814 505
-0.47719434 -0.22696999 0.059638966 548
-0.4754025 -0.21901712 0.059410408 469
-0.47257483 -0.21073791 0.059136137 476
-0.46961632 -0.20256147 0.058861867 456
-0.4720667 -0.1967833 0.058861867 496
-0.47351846 -0.1906046 0.058816157 478
-0.47582182 -0.18477942 0.058816157 524
-0.47805354 -0.17892647 0.058816157 553
-0.47739151 -0.17203698 0.058679022 564
-0.47757748 -0.1655158 0.058587596 517
-0.47672704 -0.15870272 0.05845046 528
-0.47673401 -0.15223725 0.058359038 533
-0.47569847 -0.14550565 0.058221903 538
-0.47744823 -0.13965714 0.058221903 579
-0.4791261 -0.1337876 0.058221903 577
-0.47976583 -0.12764333 0.05817619 564
-0.47935805 -0.12126086 0.058084767 583
-0.4769223 -0.11444608 0.057901919 604
-0.47634143 -0.10814719 0.0578105 597
-0.47860995 -0.10250048 0.05785621 563
-0.47983176 -0.096619487 0.05785621 639
-0.48098138 -0.090723932 0.05785621 624
-0.48107415 -0.08464396 0.0578105 611
-0.48207667 -0.078734063 0.0578105 673
-0.48399469 -0.072958872 0.05785621 700
-0.48386368 -0.066879593 0.0578105 719
-0.48365653 -0.060814552 0.057764784 727
-0.48238069 -0.054654587 0.057673365 729
-0.48202088 -0.048633024 0.057627652 742
-0.48258141 -0.042714227 0.057627652 823
-0.48306927 -0.036788996 0.057627652 795
-0.48248723 -0.030796988 0.057581939 820
-0.48183107 -0.024824813 0.057536229 899
-0.48209947 -0.018910136 0.057536229 914
-0.48029786 -0.012943622 0.057444803 874
-0.47842279 -0.0070241797 0.057353381 928
-0.40468711 -0.00036244612 0.051663309 4259
-0.40266284 0.0045790602 0.051583741 4270
-0.43653908 0.010355972 0.052936364 6520
-0.42539537 0.01530692 0.05249875 5291
-0.43515551 0.021016965 0.052896582 5760
-0.44583538 0.027030122 0.053334191 6823
-0.44746312 0.032646317 0.05341376 6813
-0.44404227 0.037877534 0.053294413 6339
-0.4216674 0.041167658 0.052419186 5467
-0.42013735 0.046228871 0.0523794 5396
-0.42251346 0.051748253 0.05249875 5208
-0.41293564 0.055718403 0.052140705 4638
-0.44483742 0.065621965 0.053453542 5794
-0.42920101 0.068693914 0.052856795 4363
-0.45195338 0.078057081 0.053811587 5635
-0.45489076 0.084329203 0.053970721 5913
-0.45186165 0.08951506 0.053891156 5734
-0.43020102 0.090706125 0.053055711 3428
-0.42418098 0.094883561 0.052856795 3610
-0.43756697 0.10354585 0.053453542 3008
-0.43626335 0.10890768 0.053453542 2995
-0.45421794 0.11934764 0.054249205 4970
-0.46138611 0.12731168 0.05460725 4571
-0.45115221 0.13045877 0.054249205 4097
-0.46577209 0.14091727 0.054925516 2807
-0.46400774 0.1466224 0.054925516 2764
-0.46407104 0.15293244 0.055005081 2657
-0.46404904 0.15926601 0.055084646 2663
-0.46582276 0.16629535 0.055243775 2511
-0.46374699 0.1719992 0.055243775 2512
-0.4653303 0.1791158 0.055402912 2340
-0.46773598 0.18666807 0.055601824 2215
-0.46910256 0.19392361 0.055760957 2025
-0.47036093 0.20124058 0.055920087 1977
-0.47059634 0.20821242 0.056039438 1788
-0.47073108 0.21522017 0.056158789 1605
-0.46805456 0.22098055 0.056158789 1568
-0.46710339 0.22758432 0.056238353 1446
-0.4660604 0.23419788 0.056317918 1487
-0.46581209 0.24128023 0.056437269 1459
-0.46545967 0.24839154 0.056556616 1416
-0.46937928 0.25793961 0.056874879 1254
-0.46704796 0.26417273 0.056914665 1252
-0.46808726 0.27240026 0.05711358 1116
-0.46470925 0.27812389 0.05711358 1112
-0.46211192 0.28432989 0.057153359 1094
-0.46027625 0.29104853 0.057232928 995
-0.45918256 0.29830977 0.057352275 1053
-0.45797956 0.30558774 0.057471626 995
-0.45749068 0.31344619 0.057630759 903
-0.45687735 0.32133836 0.057789892 929
-0.45613873 0.32926229 0.057949021 837
-0.45447144 0.33662087 0.058068372 842
-0.45428219 0.34519798 0.058267288 826
-0.45316258 0.35320589 0.058426417 812
-0.45113435 0.36061358 0.058545768 831
-0.44821978 0.36739039 0.058625333 808
-0.44444209 0.37350649 0.058665115 739
-0.44209486 0.38089043 0.058784463 805
-0.45909396 0.40548322 0.05993817 1465
-0.45704478 0.41377077 0.060097303 1411
-0.44973665 0.41730794 0.059977956 1479
-0.44675264 0.42486259 0.060097303 683
-0.44579601 0.43450016 0.060336001 698
-0.44254994 0.44205782 0.060455352 678
-0.43988302 0.45031613 0.060614482 616
-0.40676591 0.42673156 0.059023164 1381
-0.44161946 0.47488606 0.061370358 466
-0.43710062 0.48175049 0.061449926 626
-0.4364506 0.49306679 0.061768189 533
-0.42318842 0.49006239 0.061330579 1173
-0.44673321 0.53039038 0.063160598 420
-0.44779697 0.54510188 0.063637994 454
-0.44731715 0.5583576 0.064035818 445
-0.44719318 0.57247025 0.064473435 490
-0.44678921 0.58666253 0.064911045 491
-0.44610322 0.60092986 0.065348662 498
-0.44571868 0.61607724 0.065826058 480
-0.44617906 0.63293815 0.066383019 450
-0.44572634 0.64907748 0.066900194 476
-0.4454987 0.66613024 0.067457154 440
-0.44546324 0.684111 0.068053901 437
-0.44558695 0.70303351 0.068690434 432
-0.44531196 0.72206002 0.06932696 403
-0.4461768 0.74375492 0.070082843 368
-0.4475809 0.767304 0.070918277 359
-0.44945759 0.79273558 0.07183329 348
-0.44884884 0.81482416 0.072589166 301
-0.45011908 0.84142101 0.073543958 271
-0.44666141 0.8601858 0.074140705 336
-0.44325912 0.87988293 0.074777231 303
-0.44250706 0.90591002 0.075692236 315
-0.43733704 0.92391825 0.076249205 289
-0.42721429 0.93194091 0.076368555 1879
-0.44611034 1.0056268 0.079352275 737
-0.43019357 1.0027597 0.078994229 405
-0.4174735 1.0070403 0.078954443 2369
-0.40174544 1.0037373 0.078596398 618
-0.38975734 1.009524 0.078636184 636
-0.37768766 1.0151676 0.07867597 736
-0.3638553 1.0159626 0.078516833 646
-0.3474606 1.0090127 0.078039438 542
-0.33348542 1.0084565 0.077840522 489
-0.32017991 1.0096153 0.077721179 519
-0.30602631 1.0077312 0.077482477 449
-0.29168916 1.0046929 0.077203996 477
-0.27773947 1.0024184 0.076965302 465
-0.26414436 1.0009202 0.076766387 536
-0.25111347 1.0011784 0.076647036 480
-0.23811612 1.001268 0.076527685 487
-0.22493562 1.0002149 0.076368555 494
-0.21181698 0.99898976 0.076209426 542
-0.19895728 0.99857372 0.076090068 518
-0.18650542 0.99995762 0.076050289 511
-0.17370807 0.99921757 0.075930938 602
-0.16111572 0.99930096 0.075851373 620
-0.14869408 1.0002145 0.075811595 670
-0.13627429 1.0009737 0.075771809 651
-0.1238583 1.0015789 0.075732023 699
-0.111448 1.0020304 0.075692236 746
-0.098262273 0.99437284 0.075334191 485
-0.086395055 0.99948597 0.075493328 933
-0.073903002 0.99748135 0.075373977 936
-0.06147318 0.99532115 0.075254634 931
-0.049156502 0.99400461 0.075175062 922
-0.03688141 0.99253595 0.075095497 832
-0.02462532 0.98991704 0.074976146 781
-0.012487858 0.99114382 0.075015932 582
-0.0003236651 0.99721766 0.075254634 605
0.012049354 1.008137 0.075692236 551
0.024542775 1.0129077 0.075891152 591
0.037670888 1.0315024 0.076647036 470
0.051749904 1.0599045 0.077800736 253
0.072542518 1.1858497 0.082853183 105
0.087677829 1.1928422 0.083171442 101
0.13491116 1.5699735 0.098288991 589
0.15406899 1.5672053 0.098249204 654
0.17262822 1.5592378 0.09801051 289
0.19248372 1.5629522 0.098249204 223
0.21218723 1.564433 0.098408334 159
0.23151591 1.5626994 0.09844812 207
0.25083402 1.5607272 0.098487906 219
0.27013853 1.5585161 0.098527685 192
0.28942657 1.5560662 0.098567471 175
0.30889007 1.5543572 0.098647036 230
0.32897621 1.5553373 0.098845951 221
0.34957081 1.5580076 0.099124432 195
0.36935645 1.5565169 0.099243782 197
0.38964376 1.5567135 0.099442698 170
0.40846294 1.5508484 0.099402912 195
0.42746347 1.5457193 0.099402912 190
0.45335868 1.5643485 0.10039749 317
0.47310176 1.5605797 0.10047705 560
0.49372602 1.559419 0.10067597 631
0.51470625 1.5589354 0.10091466 660
0.53574872 1.5581708 0.10115337 609
0.55752301 1.5590053 0.10147163 580
0.57904989 1.5586022 0.10175011 628
0.60029072 1.5569725 0.10198881 651
0.62046528 1.552272 0.10210816 675
0.64329165 1.5537722 0.10250599 586
0.6658541 1.5540262 0.10286403 647
0 0 0 613
0 0 0 649
0 0 0 645
0 0 0 666
0 0 0 730
0 0 0 631
0 0 0 678
0 0 0 626
0.87199783 1.5398456 0.10600689 638
0 0 0 635
0.92236865 1.5394073 0.10700147 608
0 0 0 677
0 0 0 652
1.0034727 1.5429405 0.10883149 568
1.0317694 1.5446333 0.1095078 539
1.0596921 1.545038 0.11014432 505
1.0849019 1.5409036 0.11058193 506
1.1113394 1.5380012 0.11109912 476
1.137868 1.5346805 0.1116163 527
1.1656915 1.532529 0.11221304 500
1.202854 1.5417392 0.11340653 620
1.2248051 1.5307627 0.11360545 537
1.2580783 1.5333813 0.11452045 515
1.2883812 1.5315887 0.11523655 560
1.3220915 1.533064 0.11615156 519
1.3540437 1.5316944 0.11694722 507
1.3868306 1.5305097 0.11778266 452
1.4238709 1.5331407 0.1188568 422
1.4556695 1.529301 0.11961268 433
1.4917734 1.5292006 0.12060726 384
1.5252652 1.5256156 0.1214427 431
1.5596067 1.5221345 0.12231793 427
1.5933663 1.517349 0.12315337 420
1.6323658 1.5167221 0.12426729 420
1.6782506 1.5214025 0.12573926 404
1.7147603 1.5165772 0.12669405 413
1.7650211 1.52283 0.12836495 350
1.8072784 1.520997 0.12959822 307
1.8466632 1.5158182 0.13067235 327
1.891651 1.5142695 0.13202497 314
1.9360873 1.5112268 0.13333783 294
1.9839106 1.5097384 0.13480979 315
2.0376027 1.5114667 0.13656023 284
2.0916312 1.5121008 0.1383107 241
2.1427083 1.5093313 0.13990201 235
2.1973238 1.5077935 0.14165246 261
2.2372632 1.4951475 0.14268681 289
2.306536 1.5008153 0.14511359 211
2.3712118 1.5017961 0.14730164 169
2.4260433 1.4951218 0.14901233 161
2.4947758 1.4955426 0.15135951 154
2.56215 1.4934911 0.15362716 157
2.6307116 1.4904991 0.15593457 124
2.702204 1.4874907 0.15836132 106
2.7775359 1.4848311 0.16094722 113
2.8629575 1.4856035 0.16397072 117
2.968442 1.49438 0.16786946 132
3.0332525 1.4806272 0.16993818 128
3.1252642 1.4783199 0.17320038 143
3.2231162 1.4764682 0.17670129 109
3.3122461 1.4683837 0.17980437 106
3.4236939 1.4677759 0.18386222 127
3.5282261 1.4615896 0.18760183 109
3.6414592 1.4563918 0.19169949 101
3.7485559 1.4461125 0.19551866 54
2.6757944 0.99483627 0.14921123 239
2.6972094 0.9652909 0.14960906 203
2.7768831 0.95551866 0.15247345 183
2.8235052 0.93296474 0.15394542 195
2.8833225 0.91363269 0.15597434 39
5.1222672 1.553863 0.24866875 50
5.3741541 1.5584995 0.25833601 182
5.3948007 1.4929659 0.25841558 181
5.3953233 1.4220681 0.25769949 179
5.5984697 1.4023553 0.26533782 52
5.8573308 1.3910198 0.27524379 69
6.1449947 1.3798809 0.28630346 209
6.1585326 1.3037477 0.28618413 279
6.1485872 1.2230083 0.28514975 250
6.1660795 1.1480119 0.28526911 244
6.1491833 1.0669647 0.28403583 211
6.1480021 0.98920304 0.28347886 207
6.155724 0.9130969 0.28331974 212
6.1476536 0.83493412 0.28256387 250
6.1514864 0.75869668 0.28232515 264
6.1543751 0.68249094 0.28208646 288
6.1423984 0.60495836 0.28129083 285
6.1264625 0.52756584 0.28037578 367
6.1235065 0.45168406 0.28001773 354
6.1315804 0.37668884 0.28013712 363
6.1107912 0.30019239 0.27914253 384
6.1299915 0.22576842 0.27977908 487
6.128305 0.15042916 0.27961993 474
6.1167006 0.07505554 0.27910274 516
6.1141634 -1.123824e-05 0.27898341 564
6.1007142 -0.074881174 0.27846622 531
6.1163168 -0.15015867 0.27914253 497
6.1030307 -0.22479871 0.27870491 239
6.1038041 -0.29987174 0.27886403 209
6.0916858 -0.3742615 0.2785458 147
6.1025786 -0.45016482 0.27918231 197
6.0975904 -0.52510476 0.27922207 233
6.0956593 -0.60038203 0.279421 450
6.0937915 -0.67580122 0.27965969 434
6.0840478 -0.75040805 0.27961993 410
6.0941834 -0.82770306 0.28041559 359
6.0845551 -0.90257233 0.28045535 298
6.0769672 -0.97780639 0.2806145 48
6.076324 -1.0543573 0.2810919 33
6.0756989 -1.1312221 0.28160906 39
6.0721388 -1.2078402 0.28204668 31
6.0715227 -1.2853689 0.28264344 184
6.0679665 -1.362626 0.28316063 310
6.0663419 -1.4406817 0.28379714 398
6.0559602 -1.5169593 0.2841154 400
6.063942 -1.5982934 0.28522933 454
6.0592794 -1.6768519 0.28586584 433
6.0583987 -1.7569281 0.28670129 489
6.05933 -1.8381045 0.2876561 439
6.0506058 -1.9168507 0.28825283 448
6.038012 -1.9947186 0.28873023 492
6.0470939 -2.0803683 0.29016241 465
6.0455689 -2.1631725 0.29119676 450
6.0326171 -2.2424212 0.29179353 475
6.0270185 -2.3249137 0.2927483 496
6.0240111 -2.4090898 0.29386222 506
6.0179954 -2.4927757 0.2948966 557
6.0200133 -2.5806129 0.29632878 498
6.0198627 -2.6684678 0.29772118 521
6.0239086 -2.759202 0.29935229 413
6.0022407 -2.8388989 0.29990926 360
5.9947867 -2.92593 0.30114251 389
5.8254495 -2.9323275 0.29521486 175
5.6240621 -2.9179904 0.28781521 143
5.452127 -2.9142404 0.28168863 117
5.2837772 -2.9081662 0.27568141 131
5.1268492 -2.9043205 0.27015156 137
4.9708304 -2.8970721 0.26462173 137
4.8234921 -2.8910658 0.25944996 140
4.6940804 -2.8923745 0.25507382 121
4.5392075 -2.8743775 0.24946441 126
4.4206777 -2.8759141 0.24552588 138
4.297822 -2.8716519 0.24134867 132
4.168334 -2.8597281 0.23681341 136
4.0602231 -2.8594534 0.23327272 93
3.9454691 -2.8516953 0.22937399 123
3.8556051 -2.8594186 0.22666875 119
3.7653589 -2.8647664 0.22392371 113
3.6543024 -2.851737 0.22010455 117
3.5527258 -2.843291 0.216723 124
3.4611845 -2.8403966 0.21381883 145
3.3748448 -2.839551 0.21115337 129
3.2777069 -2.8272297 0.20789117 157
3.206089 -2.8348043 0.2059418 130
3.1125751 -2.8209195 0.20279895 187
3.0418539 -2.825578 0.20084958 167
2.9685984 -2.826174 0.19874108 224
2.8957922 -2.8254032 0.19663258 179
2.8185117 -2.8183308 0.19424559 207
2.72859 -2.7962046 0.19110274 181
2.6761582 -2.8106616 0.19006838 194
2.6067848 -2.8059523 0.18803945 218
2.5077415 -2.7666512 0.18422028 138
2.3107882 -2.6130643 0.17443366 116
2.2478755 -2.6056616 0.17256385 181
2.1462572 -2.5504732 0.16826729 35
2.0818379 -2.5364521 0.16619858 83
2.0305769 -2.5368433 0.16492552 160
2.0146604 -2.5812647 0.16592009 109
2.0257862 -2.6622558 0.16874468 151
1.8774996 -2.5312083 0.16102679 184
1.8182029 -2.5151846 0.15911719 225
1.7710923 -2.514432 0.15800327 191
1.2839625 -1.8710302 0.12589839 56
1.2581301 -1.8824912 0.12569948 29
1.2332996 -1.8952758 0.12558013 42
1.2051382 -1.9026697 0.12522209 31
1.1775059 -1.9105096 0.12490382 36
1.1478086 -1.9145305 0.12442642 25
1.1136632 -1.910342 0.12359098 27
1.0812724 -1.9082148 0.12287489 38
1.0466942 -1.9012055 0.12195987 27
1.017162 -1.9024507 0.1214427 25
0.99143881 -1.9103547 0.12124378 30
0.96477681 -1.9161295 0.1209653 30
0.93067324 -1.9062728 0.12001051 102
0.9067831 -1.9166467 0.11997072 145
0.89734 -1.9585181 0.12132335 108
0.894696 -2.0177987 0.12343185 131
0.89269716 -2.0818939 0.12573926 120
0.88390392 -2.1333115 0.12748972 108
0.88325477 -2.2080154 0.13023475 83
0.88341826 -2.2895412 0.13325825 77
0.88449442 -2.378886 0.13660002 93
0.88014084 -2.4591815 0.13954397 70
0.90254509 -2.6228678 0.14598881 111
0.88564569 -2.6802368 0.14793818 163
0.86867869 -2.7413895 0.15004668 305
0.83381224 -2.7480185 0.14988755 382
0.79696643 -2.7474871 0.14944993 349
0.76105911 -2.7493558 0.14913167 364
0.72420776 -2.7468936 0.14865428 296
0.6877746 -2.7449117 0.14821666 311
0.65173048 -2.7434232 0.14781883 268
0.61713988 -2.7473145 0.14765969 394
0.57882822 -2.7331748 0.14678447 446
0.53900844 -2.7087114 0.14551142 384
0.504448 -2.7082453 0.14523293 413
0.47049263 -2.7102938 0.1450738 358
0.43735638 -2.71685 0.14511359 391
0.40325075 -2.7170703 0.14491467 386
0.36987779 -2.7218144 0.14491467 434
0.33547109 -2.718215 0.1445964 447
0.30131868 -2.7151752 0.14431792 404
0.26729146 -2.7117071 0.14403945 471
0.23330922 -2.7068188 0.14372118 425
0.20000137 -2.7084816 0.14368141 391
0.1668715 -2.7127266 0.14376096 438
0.13347167 -2.7125742 0.14368141 505
0.10006402 -2.7110124 0.14356205 515
0.06664145 -2.7060425 0.14332335 534
0.033392537 -2.7036593 0.143204 520
0.00021216144 -2.7008679 0.14308465 490
-0.032894675 -2.6976697 0.1429653 489
-0.065972172 -2.696064 0.14292552 606
-0.099273115 -2.7010429 0.14316422 556
-0.13241158 -2.6996212 0.14316422 561
-0.16559145 -2.6987898 0.143204 552
-0.19862372 -2.6955583 0.14316422 537
-0.23168743 -2.6929181 0.14316422 502
-0.26471621 -2.689872 0.14316422 483
-0.29880717 -2.696352 0.14356205 92
-0.10694103 -0.86976373 0.070440888 71
-0.11639548 -0.85947496 0.070082843 111
-0.12561367 -0.8490864 0.069724791 117
-0.13459463 -0.83860242 0.069366746 91
-0.14214119 -0.82113582 0.06873022 87
-0.1593425 -0.85764003 0.070281751 172
-0.16576007 -0.83504015 0.06944631 280
-0.17599481 -0.83294314 0.06944631 555
-0.18773599 -0.83754516 0.069724791 639
-0.19846171 -0.8371225 0.069804356 681
-0.2094481 -0.83753181 0.069923706 657
-0.22072905 -0.83876324 0.070082843 575
-0.23153844 -0.83791745 0.070162401 502
-0.24208194 -0.83597261 0.070202187 502
-0.25667414 -0.84728146 0.070798934 264
-0.27157971 -0.85835582 0.07139568 165
-0.28271958 -0.85685599 0.071475245 135
-0.28476027 -0.82875633 0.070440888 44
-0.68344307 -1.9108557 0.11635047 135
-0.70579618 -1.8995153 0.11623112 209
-0.72401756 -1.8776598 0.11567416 180
-0.74218076 -1.8565729 0.11515699 204
-0.76376051 -1.844556 0.11503763 214
-0.78633863 -1.8350446 0.11503763 208
-1.1692307 -2.6382358 0.15044451 212
-1.2073441 -2.6364069 0.15100147 361
-1.2425967 -2.6277151 0.15127996 340
-1.2800094 -2.6230438 0.15175734 352
-1.3188415 -2.6205258 0.15235409 410
-1.3582637 -2.6183348 0.15299061 363
-1.3898213 -2.6005886 0.15295084 409
-1.4033192 -2.5500743 0.15143909 70
-1.4315515 -2.5274451 0.15120038 41
-1.440822 -2.4725676 0.14948972 113
-1.4859544 -2.4795539 0.15064342 178
-1.5755085 -2.5572553 0.15513891 39
-4.8733568 -7.6954837 0.39821306 45
-4.9821386 -7.6577139 0.39928719 46
-1.7407404 -2.6055329 0.16031069 34
-1.8183756 -2.6507113 0.16353312 42
-1.8691801 -2.6543381 0.16480617 45
-1.8828797 -2.6052878 0.16353312 20
-1.4099112 -1.9014379 0.12979713 16
-1.401069 -1.8418491 0.12768863 18
-1.3842189 -1.7741054 0.12514251 25
-1.38528 -1.7312428 0.12382968 19
-1.3855007 -1.6886251 0.12251684 24
-1.3745931 -1.6340343 0.12056747 36
-1.3730024 -1.5920762 0.11925463 38
-1.3646349 -1.5436704 0.11758374 46
-1.3740802 -1.5164436 0.11702678 34
-1.3653815 -1.4701861 0.11543547 52
-1.365405 -1.4345057 0.1144011 50
-1.3675525 -1.4019095 0.11352588 48
-1.367695 -1.368066 0.11257109 46
-1.3665 -1.3337349 0.11157651 39
-1.3596051 -1.294819 0.11030345 42
-1.3592856 -1.2630768 0.10942823 44
-1.3613558 -1.2342235 0.10871214 44
-1.3576845 -1.2008785 0.10771756 57
-1.3594556 -1.173033 0.10704125 37
-1.3676313 -1.1511158 0.10672299 68
-1.3654331 -1.1209356 0.10588754 47
-1.3744049 -1.1003494 0.10564885 52
-1.3783513 -1.0760241 0.10517145 50
-0.43397522 -0.3306331 0.05727271 152
-0.45726258 -0.33956686 0.058227502 543
-0.46382472 -0.33568582 0.058346853 765
-0.46219033 -0.32594162 0.058068372 834
-0.4645074 -0.31911483 0.057988808 868
-0.46921933 -0.31394568 0.058028586 935
-0.47219896 -0.30761912 0.057988808 966
-0.49029014 -0.3108882 0.058665115 820
-0.48896396 -0.30170345 0.058426417 1291
-0.48662996 -0.2920849 0.058147937 2036
-0.48068109 -0.28055727 0.057710323 984
-0.4840878 -0.27463746 0.057710323 1053
-0.48129368 -0.26530409 0.057431843 1187
-0.48010686 -0.25702307 0.057232928 1252
-0.47878999 -0.24881148 0.057034012 1249
-0.4800221 -0.24201888 0.056954447 1471
-0.47936395 -0.23435718 0.056795314 1589
-0.47859055 -0.22674838 0.056636184 1799
-0.47861168 -0.21961014 0.056516834 1870
