# .PCD v0.7 - Point Cloud Data file format
VERSION 0.7
FIELDS x y z intensity
SIZE 4 4 4 4
TYPE F F F F
COUNT 1 1 1 1
WIDTH 1346
HEIGHT 1
VIEWPOINT 0 0 0 1 0 0 0
POINTS 1346
DATA ascii
0.30775997 0.71948612 -0.084574431 1220
0.3181662 0.71926802 -0.085196719 1127
0.33190203 0.72608811 -0.087063596 823
0.34163144 0.7237466 -0.087374732 887
0.33186719 0.68132204 -0.080685116 305
0.33975917 0.67631572 -0.080529548 252
0.30211005 0.58352238 -0.064816728 81
0.31297132 0.58674157 -0.066061303 55
0.32110009 0.58458787 -0.066372454 82
0.32484317 0.57458603 -0.06528344 114
0.33833289 0.58165312 -0.067305885 80
0.35001358 0.58508432 -0.068706036 76
0.35975698 0.5849508 -0.069483899 93
0.36902109 0.58383083 -0.070106193 93
0.3783116 0.58257109 -0.070728481 94
0.38104361 0.57131273 -0.069483899 69
0.39026025 0.56985253 -0.070106193 69
0.40234095 0.57229072 -0.071506344 65
0.41280419 0.57211477 -0.072439775 50
0.4244996 0.57335472 -0.073684357 46
0.44405976 0.58461499 -0.076951377 48
0.45788321 0.58768976 -0.078662679 40
0.47986937 0.60054034 -0.082396418 42
0.49659958 0.60606307 -0.084730007 33
0.5192582 0.6180681 -0.088463739 32
0.54292887 0.63035375 -0.092353061 25
0.55912727 0.63326633 -0.094375491 29
0.57746714 0.63807124 -0.096864656 22
0.60810548 0.65555018 -0.10215412 16
0.62699938 0.65948838 -0.10464329 18
0.65918362 0.67649692 -0.11008832 11
0.6841948 0.68512547 -0.11382206 19
0.70315319 0.68702883 -0.11615565 19
0.72655106 0.69265664 -0.11942267 21
0.76032031 0.70722675 -0.12486771 28
0.79308933 0.71974164 -0.1300016 54
0.79890263 0.70733678 -0.1293793 69
0.82173085 0.70974296 -0.13233519 46
0.80393016 0.67733836 -0.12689015 91
0.87707245 0.72070724 -0.14011382 22
0.88585055 0.70988995 -0.14011382 31
0.90850961 0.70990902 -0.14291412 33
0.92579865 0.70528871 -0.14462541 31
0.95183575 0.70682544 -0.14804801 27
0.97644633 0.70666957 -0.15115945 32
0.9890821 0.69747901 -0.15193732 11
1.0162977 0.69814765 -0.15551549 27
1.0444971 0.6988005 -0.15924923 23
1.0579611 0.68916374 -0.16018265 23
1.08553 0.6882897 -0.16376083 21
1.1199608 0.69098836 -0.16858357 23
1.1461461 0.68786246 -0.17185059 23
1.196313 0.69813055 -0.17947365 22
1.2340082 0.69996011 -0.18476312 19
1.2476964 0.68762362 -0.18569654 25
1.2873986 0.68903321 -0.19129716 17
1.3737837 0.71369398 -0.20514311 73
1.3850851 0.69811499 -0.20560983 65
1.3891097 0.67889762 -0.20483196 77
1.3964434 0.66137743 -0.20467639 1371
1.4080462 0.64583755 -0.20529868 961
1.4149626 0.62810951 -0.20514311 483
1.4189328 0.60914063 -0.20452082 222
1.4600644 0.60567874 -0.21027701 90
1.4554647 0.58294415 -0.20825456 54
1.5048993 0.5814051 -0.21541089 266
2.7238305 1.0137646 -0.41905528 127
2.8058147 1.0052415 -0.43072322 87
1.5140713 0.52176058 -0.21354401 264
1.5316148 0.50686288 -0.21541089 167
1.518887 0.48205748 -0.21229944 86
3.0691576 0.93237019 -0.4665049 86
3.0832143 0.89546293 -0.46697161 77
3.0863552 0.85544974 -0.465727 86
3.0956652 0.81725901 -0.46557143 84
3.1083357 0.77992976 -0.4660382 91
3.1147895 0.74104142 -0.46557143 103
3.1149747 0.70081204 -0.46417132 113
3.1214075 0.66212398 -0.46386018 145
3.1273601 0.6233837 -0.46354899 110
3.1163242 0.58151859 -0.46059313 108
3.1222522 0.54306352 -0.46043757 130
3.1286814 0.50470781 -0.46043757 122
3.1268227 0.46511433 -0.45919299 110
3.1225069 0.42537618 -0.45763725 144
3.1333737 0.38775337 -0.45857069 122
3.1349511 0.34894538 -0.45810398 130
3.1330988 0.3098658 -0.45717055 129
3.1366653 0.27139455 -0.45717055 129
3.1486259 0.23353894 -0.45857069 121
3.1581562 0.19530885 -0.4596597 110
3.1425557 0.1556612 -0.45685941 131
3.1264608 0.11642598 -0.45405909 301
3.0664282 0.07653033 -0.4444136 213
2.8676114 0.03638953 -0.41298795 218
2.8708053 0.0011976236 -0.41345468 265
2.8735673 -0.034067191 -0.41392139 291
2.8778706 -0.069447532 -0.41469926 264
2.8708787 -0.10454173 -0.41376582 272
2.8703661 -0.13981214 -0.41392139 228
1.0492964 -0.063782096 -0.12689015 323
1.0228204 -0.074771643 -0.12284526 392
1.0060785 -0.085966021 -0.1203561 326
0.96857321 -0.094733506 -0.11459993 341
0.93788266 -0.10335422 -0.10993275 306
0.84634417 -0.10375661 -0.095620081 379
0.74320412 -0.10033763 -0.079440542 500
0.69012666 -0.10178299 -0.0711952 844
0.68785036 -0.1100876 -0.071039625 827
0.68255424 -0.11784588 -0.070417337 437
0.66357535 -0.12296335 -0.067617029 128
0.63973176 -0.12667105 -0.064038865 56
2.5053372 -0.52924973 -0.36460492 40
2.463954 -0.55217248 -0.35900429 74
2.4175851 -0.57302052 -0.35262582 65
2.3691647 -0.59233558 -0.34593621 73
2.3158643 -0.60929269 -0.33846873 90
2.2644157 -0.62555903 -0.33131239 74
2.2157695 -0.64148086 -0.32462278 94
2.1614075 -0.65458584 -0.31699973 85
2.1202495 -0.67062819 -0.3115547 104
2.0762143 -0.6848318 -0.30564293 113
2.0396285 -0.70062602 -0.30097577 105
2.0001814 -0.71462929 -0.29584187 118
1.9588504 -0.7270838 -0.29039684 110
1.9405631 -0.74751467 -0.2888411 82
1.8798746 -0.75074601 -0.28012905 124
1.8440509 -0.76280326 -0.27561745 125
1.8082182 -0.77409601 -0.27110586 142
1.7750998 -0.78582597 -0.26706097 122
1.7419693 -0.79686129 -0.26301607 138
1.7150904 -0.81015813 -0.26006019 118
1.6970288 -0.82724667 -0.25866005 110
1.685867 -0.84756565 -0.25850448 104
1.6814778 -0.87137276 -0.25959349 127
1.6880842 -0.90124971 -0.26270494 144
1.7011325 -0.93522716 -0.26706097 132
1.7127378 -0.96917188 -0.27126142 116
1.7280307 -1.0060261 -0.27623972 129
1.7435203 -1.0439068 -0.28137362 106
1.7549716 -1.0802449 -0.28588524 120
1.7549386 -1.1101518 -0.28837439 98
1.8008115 -1.1703722 -0.2995756 162
1.8084942 -1.2071944 -0.30377606 211
1.7951733 -1.2304137 -0.30408722 170
1.7847859 -1.2557621 -0.30502066 518
1.7700421 -1.2781479 -0.30517623 334
1.7510496 -1.29742 -0.30455393 322
1.7334238 -1.3176144 -0.30424279 353
1.7031035 -1.3278518 -0.30144247 740
1.6758808 -1.340013 -0.29926446 351
1.6402162 -1.3448163 -0.29537517 301
1.605445 -1.3495845 -0.29164141 301
1.5715545 -1.3543489 -0.28806326 240
1.5370514 -1.3578329 -0.2843295 295
1.507095 -1.3646556 -0.28152919 268
1.4735849 -1.3675886 -0.27795103 318
1.4395164 -1.3692262 -0.27421731 332
1.4127046 -1.3771328 -0.27203929 306
1.3810261 -1.3797009 -0.26877224 333
1.3508797 -1.3831147 -0.26581639 345
1.3235848 -1.3888594 -0.26348278 306
1.2970264 -1.3948677 -0.26130477 292
1.2718484 -1.4018981 -0.25943792 311
1.2460401 -1.4077826 -0.25741547 322
1.2202798 -1.4132457 -0.25539303 319
1.1945746 -1.4182904 -0.25337058 310
1.1689304 -1.4229183 -0.25134814 376
1.1445889 -1.4286742 -0.24963683 365
1.1202832 -1.4340481 -0.24792555 351
1.0954204 -1.438256 -0.24605867 356
1.0700357 -1.4412779 -0.24403623 350
1.0447427 -1.4438947 -0.24201378 360
1.0246693 -1.4533768 -0.24139151 381
1.0050796 -1.4633983 -0.24092478 427
0.71801686 -1.0732388 -0.16469426 339
0.69994217 -1.0745184 -0.16329411 487
0.68458861 -1.0796891 -0.16267182 452
0.66973227 -1.0854863 -0.1622051 477
0.6522966 -1.0868461 -0.16096053 514
0.63891023 -1.0947689 -0.16096053 492
0.62299192 -1.09823 -0.16018265 505
0.60756183 -1.1023314 -0.15956037 507
0.59212512 -1.1062199 -0.15893808 547
0.57622963 -1.1090194 -0.15816022 556
0.56035489 -1.111596 -0.15738235 556
0.54493761 -1.1148382 -0.15676007 531
0.53121579 -1.1214415 -0.15676007 602
0.51535589 -1.123386 -0.15598221 522
0.50153148 -1.1296257 -0.15598221 629
0.48568419 -1.1311561 -0.15520434 590
0.47025347 -1.133381 -0.15458205 599
0.45520857 -1.136315 -0.15411533 618
0.4401626 -1.139051 -0.15364861 576
0.42511824 -1.1415892 -0.1531819 523
0.41607296 -1.1606699 -0.15551549 430
0.40758747 -1.1825004 -0.15831579 397
0.43832445 -1.3243434 -0.18102938 229
0.41815794 -1.3173816 -0.17900693 179
0.3589074 -1.1806327 -0.15567106 572
0.34356603 -1.1821022 -0.15520434 530
0.35461628 -1.2785701 -0.17029487 112
0.41501364 -1.5712752 -0.21727777 521
0.39954513 -1.5915803 -0.21976691 362
0.33473745 -1.4060796 -0.18896358 87
0.30337155 -1.3474369 -0.17885137 85
0.27554604 -1.2979093 -0.17029487 134
0.25033447 -1.2546911 -0.16282739 185
0.23636733 -1.2654372 -0.16407198 195
0.23824377 -1.3684856 -0.18009594 126
0.20539793 -1.271832 -0.16422755 358
0.18585418 -1.2478753 -0.16002709 412
0.16946107 -1.2422317 -0.15878251 479
0.15408303 -1.2432374 -0.15862693 464
0.13848752 -1.2420893 -0.15816022 504
0.12313764 -1.2427123 -0.15800464 481
0.1079634 -1.2451138 -0.15816022 452
0.092894651 -1.2493005 -0.15862693 492
0.077435113 -1.2483742 -0.15831579 472
0.062109809 -1.2492306 -0.15831579 434
0.046701878 -1.2479244 -0.15800464 383
0.031654153 -1.2592664 -0.15971595 250
0.017091598 -1.3306777 -0.17091717 145
0.0007731769 -1.3742514 -0.17776236 73
-0.016245008 -1.3869983 -0.17978479 67
-0.03331231 -1.3886696 -0.18009594 66
-0.050350916 -1.3881562 -0.18009594 83
-0.067478314 -1.3894069 -0.18040708 41
-0.084041037 -1.3805865 -0.1791625 82
-0.096995212 -1.3252671 -0.17060602 357
-0.11333545 -1.3249612 -0.17076159 503
-0.12920004 -1.3195382 -0.1701393 443
-0.14462288 -1.3109804 -0.16905029 377
-0.17734835 -1.4444063 -0.1905193 119
-0.19479476 -1.4401635 -0.19020815 172
-0.21187444 -1.4337559 -0.18958586 87
-0.23086269 -1.4398259 -0.19098601 73
-0.24935722 -1.441751 -0.19176388 86
-0.26594773 -1.4327555 -0.19083044 157
-0.28697374 -1.4468242 -0.19363074 208
-0.30797592 -1.458657 -0.1961199 53
-0.32714966 -1.460551 -0.19705334 61
-0.33912098 -1.4314363 -0.19300845 136
-0.36121663 -1.4453746 -0.19596434 95
-0.38269874 -1.455162 -0.19829792 17
-0.40184301 -1.4551167 -0.19907579 40
0 0 0 36
0 0 0 68
-0.45095667 -1.4261551 -0.19689777 93
-0.46997181 -1.4252042 -0.19767563 113
-0.48228851 -1.4043825 -0.19518647 151
-0.49915358 -1.3974282 -0.1950309 118
-0.5111059 -1.3773073 -0.19269732 150
-0.52441657 -1.3617141 -0.19114159 147
-0.54145396 -1.3560934 -0.19129716 191
-0.56183219 -1.3584743 -0.19285288 164
-0.58157194 -1.3587416 -0.19409746 157
-0.60300261 -1.3623409 -0.19596434 170
-0.6258418 -1.3683119 -0.19829792 155
-0.64849532 -1.3730322 -0.20047593 180
-0.67135805 -1.3774008 -0.20265394 143
-0.68998587 -1.3725884 -0.20327625 141
-0.71769005 -1.3850648 -0.20700999 196
-0.74301028 -1.391837 -0.20981029 288
-0.48724765 -0.88666081 -0.12066725 249
-0.49419844 -0.87373769 -0.11942267 444
-0.50040883 -0.85992497 -0.11802252 537
-0.51092374 -0.85371941 -0.11802252 627
-0.52136177 -0.84738535 -0.11802252 682
-0.53172117 -0.84092361 -0.11802252 653
-0.542539 -0.83516341 -0.11817808 669
-0.55274695 -0.82844275 -0.11817808 580
-0.56510597 -0.82485616 -0.11880037 620
-0.57689142 -0.82028276 -0.11926709 591
-0.59501225 -0.82435215 -0.1214451 659
-0.61743617 -0.83365387 -0.12471214 704
-0.64137197 -0.84409952 -0.1282903 979
-0.64985949 -0.83382857 -0.12782358 805
-0.64029789 -0.80110604 -0.12284526 510
-0.65195978 -0.7954796 -0.12331198 513
-0.66548723 -0.79195529 -0.12424542 503
-0.68031561 -0.78971452 -0.12548999 552
-0.69453436 -0.78648788 -0.126579 530
-0.70479673 -0.77863783 -0.12673457 746
-0.73983884 -0.7974394 -0.13264634 475
-0.77272099 -0.81263149 -0.1379358 464
-0.79573876 -0.81652486 -0.14089167 429
-0.81058699 -0.81158936 -0.14198068 495
-0.82401955 -0.80503142 -0.14275855 524
-0.83812779 -0.79894692 -0.14369197 423
-0.8471455 -0.78792912 -0.1435364 544
-0.85894608 -0.77946478 -0.14400312 485
-0.86326778 -0.76428354 -0.14291412 421
-0.67665642 -0.5845291 -0.10215412 303
-0.5470022 -0.46102804 -0.073995501 385
-0.54269409 -0.44613126 -0.071973063 484
-0.54350156 -0.43573314 -0.071039625 576
-0.53946483 -0.4217352 -0.069172755 680
-0.54381359 -0.41448501 -0.069017179 719
-0.54330623 -0.4036597 -0.067928173 826
-0.55142051 -0.39927763 -0.068550467 787
-0.55789369 -0.39361885 -0.068861611 851
-0.56431079 -0.38786119 -0.069172755 889
-0.57067031 -0.38200507 -0.069483899 828
-0.58028233 -0.37820682 -0.070417337 857
-0.57737005 -0.36629894 -0.069017179 808
-0.6129328 -0.37836844 -0.074773364 964
-0.63108408 -0.37894765 -0.077262528 967
-0.64677989 -0.37764421 -0.079284966 960
-0.66855258 -0.37942159 -0.082396418 1100
-0.67488879 -0.37214196 -0.082707562 1197
-0.6881153 -0.36849108 -0.084263287 1119
-0.70310587 -0.36548123 -0.086130157 1050
-0.71283126 -0.35949188 -0.087063596 978
-0.73582894 -0.35982132 -0.090330616 816
-0.76697499 -0.36344254 -0.094997793 718
-0.78843892 -0.36182392 -0.097953662 613
-0.79733449 -0.3541241 -0.098731533 677
-0.81069815 -0.34820747 -0.10028726 717
-0.85141116 -0.35336405 -0.10651015 538
-0.88503045 -0.35463512 -0.11148848 394
-0.88194346 -0.34090152 -0.11024389 545
-0.89254123 -0.33246413 -0.11133289 459
-0.69753689 -0.25021315 -0.078040384 692
-0.66973281 -0.23102118 -0.072906494 832
-0.66876584 -0.22154462 -0.072284207 909
-0.66955096 -0.21272396 -0.071973063 929
-0.6740014 -0.20506555 -0.072284207 795
-0.67646712 -0.19677909 -0.072284207 793
-0.68168688 -0.18925416 -0.072750926 667
-0.68395799 -0.18087459 -0.072750926 608
-0.69474947 -0.17463037 -0.074151076 404
-0.66800928 -0.15923607 -0.069483899 109
-1.9102734 -0.42992836 -0.26970568 136
-1.941497 -0.41198534 -0.27390614 154
-1.958032 -0.39044505 -0.27577302 205
-1.9811264 -0.36982822 -0.2787289 163
-1.9251751 -0.3350012 -0.26908341 108
-2.0266647 -0.32707116 -0.28464064 54
-2.0842659 -0.31016344 -0.29319713 25
-2.0673604 -0.28176531 -0.28993011 35
-2.0569372 -0.25467762 -0.28775209 39
-2.028491 -0.22592358 -0.28277379 57
-1.1090187 -0.10993169 -0.13684678 82
-1.1073318 -0.096058942 -0.13638008 62
-1.950711 -0.14483383 -0.26939455 54
-1.1044258 -0.068550467 -0.13560221 96
-1.1071572 -0.055089798 -0.13591336 67
-2.0346787 -0.0759032 -0.28199592 74
-1.9406552 -0.048574679 -0.26706097 123
-1.9895047 -0.025363911 -0.27468401 179
-1.8862976 0.00059193815 -0.26878482 84
-1.8851614 0.023727447 -0.26862392 94
-1.894595 0.047102779 -0.27023306 96
-1.919518 0.071296141 -0.27441686 54
-1.9253991 0.095185965 -0.27554324 40
0 0 0 13
0 0 0 6
0 0 0 7
-1.4518617 0.14354385 -0.19910869 7
0 0 0 6
-1.9484428 0.24092238 -0.28133619 37
-1.4485284 0.1972844 -0.19959144 10
0 0 0 7
-1.1869786 0.19151044 -0.15727083 16
-1.1553664 0.20099688 -0.15244339 10
-1.1237047 0.20973706 -0.14761595 13
-1.1123344 0.22177696 -0.14616771 12
-1.1008393 0.23356967 -0.14471948 15
-1.0901864 0.24533026 -0.14343217 8
-1.0630878 0.25298625 -0.13940929 13
-1.0378839 0.26049483 -0.13570826 9
-1.0231569 0.27019182 -0.13377728 17
-0.99027729 0.27456364 -0.12878892 17
-0.95555323 0.2776204 -0.12347873 12
-0.95490777 0.29018545 -0.12396146 6
-0.89294207 0.28339505 -0.11398475 17
-0.86690629 0.28689876 -0.1101228 15
-0.83252311 0.28691673 -0.10481261 28
-0.80106241 0.28713346 -0.099985167 29
-0.76880085 0.28627872 -0.094996795 21
-0.73576438 0.28432178 -0.08984752 37
-0.71572536 0.28673092 -0.086951062 34
-0.69391686 0.28793648 -0.083732769 42
-0.6721893 0.28865108 -0.080514476 38
-0.65957397 0.29287755 -0.078905314 43
-0.64067656 0.29396078 -0.076169774 48
-0.62363857 0.29546952 -0.073756054 49
-0.60932273 0.29790431 -0.071825072 59
-0.59063494 0.2978138 -0.069089517 48
-0.57992768 0.3014023 -0.067802191 58
-0.57357424 0.30710015 -0.067319453 43
-0.56198102 0.30983171 -0.065871224 39
0 0 0 6
-0.52948099 0.30911511 -0.06120469 144
-0.51464343 0.30899191 -0.059112798 112
-0.50745201 0.31321275 -0.058469135 118
-0.49439853 0.3136071 -0.056699071 220
-0.45494145 0.29650322 -0.049779739 155
-0.4299337 0.28780484 -0.045595948 164
-0.41253519 0.28356549 -0.0428604 129
-0.40176255 0.28349108 -0.041412164 109
-0.347864 0.25197014 -0.031274531 180
-0.33047757 0.24563557 -0.028378066 229
-0.31801355 0.24250007 -0.026447084 241
-0.30256563 0.23666754 -0.023872446 263
-0.28885165 0.23172745 -0.02161964 261
-0.27530608 0.22648773 -0.019366834 291
-0.26117909 0.22031626 -0.016953111 210
-0.25098309 0.2170573 -0.015343964 258
-0.22390358 0.1985434 -0.010033775 350
-0.23534355 0.21387096 -0.013091154 253
-0.22764006 0.2120402 -0.011964753 227
-0.21644403 0.20665014 -0.010033775 261
-0.20965385 0.20515457 -0.0090682842 235
-0.20153798 0.20212816 -0.0077809654 294
-0.19697478 0.20246668 -0.0072982199 317
-0.19447537 0.20486861 -0.0072982199 367
-0.19194669 0.2072397 -0.0072982199 384
-0.18474999 0.20446 -0.0061718188 439
-0.17372888 0.19709899 -0.004079923 490
-0.17258626 0.20071088 -0.0044017546 643
-0.16947487 0.2020584 -0.0042408407 626
-0.16134816 0.19725586 -0.0027926043 864
-0.15829876 0.19845036 -0.0026316904 911
0 0 0 4
0 0 0 3
0 0 0 4
0 0 0 1
0 0 0 3
0 0 0 3
0 0 0 2
0 0 0 2
0 0 0 1
0 0 0 1
0 0 0 2
0 0 0 1
0 0 0 1
0 0 0 1
0 0 0 1
0 0 0 1
0 0 0 1
0 0 0 1
0 0 0 1
0 0 0 1
0 0 0 1
0 0 0 1
0 0 0 1
0 0 0 1
0 0 0 1
0 0 0 3
0 0 0 5
0 0 0 6
0 0 0 6
0 0 0 5
0 0 0 5
0 0 0 7
0 0 0 4
0 0 0 5
0 0 0 4
0 0 0 5
0 0 0 4
0 0 0 4
0 0 0 3
0 0 0 4
0 0 0 3
0 0 0 6
0 0 0 5
0 0 0 5
-0.071583666 0.58406419 -0.057181817 205
-0.067453913 0.6123656 -0.061687436 356
-0.061866827 0.63279188 -0.064905733 624
-0.053927694 0.63153672 -0.064583898 1127
-0.046971187 0.64297831 -0.066353962 1348
-0.039439801 0.64941698 -0.067319453 1474
-0.031660769 0.65379518 -0.067963108 1569
-0.023635313 0.65413445 -0.067963108 1608
-0.015654527 0.65634859 -0.068284944 1557
-0.0076109432 0.65747821 -0.068445861 1595
0.00045811484 0.65949601 -0.068767682 1570
0.0085755493 0.6614145 -0.069089517 1566
0.016715808 0.66224617 -0.069250435 1523
0.024877764 0.66297746 -0.069411352 1567
0.033108711 0.66459388 -0.069733173 1498
0.041928731 0.67497361 -0.071503237 1412
0.050353967 0.67637688 -0.071825072 1402
0.058989506 0.67964131 -0.072468728 1354
0.067615844 0.68181288 -0.072951466 1334
0.076195426 0.68289357 -0.073273301 1307
0.085053541 0.68582523 -0.073916957 1243
0.094127938 0.68961978 -0.07472153 1143
0.10301831 0.69134158 -0.075204283 1146
0.11180817 0.69197416 -0.075526103 1143
0.12079787 0.69346726 -0.076008856 1160
0.12984096 0.69484347 -0.076491594 1142
0.13893594 0.69610178 -0.076974347 1099
0.14808127 0.69724107 -0.077457085 1104
0.15727539 0.69826025 -0.077939838 1075
0.16651674 0.69915831 -0.078422576 1157
0.17628354 0.7018491 -0.079227149 1167
0.18639292 0.70535904 -0.08019264 1139
0.19608809 0.70682335 -0.080836296 1192
0.20557211 0.7072075 -0.081319049 1150
0.21509497 0.70746493 -0.081801787 1207
0.22495314 0.70853543 -0.082445443 1210
0.23517951 0.7104072 -0.083250016 1209
0.24516429 0.71120065 -0.083893687 1234
0.25553635 0.71278483 -0.08469826 1186
0.26598397 0.71422076 -0.085502833 1264
0.27650505 0.71550691 -0.086307406 1223
0.28673092 0.71572536 -0.086951062 1266
0.29775918 0.71762359 -0.087916553 1221
0.30848786 0.71845108 -0.088721126 1237
0.32088166 0.72273165 -0.090169355 978
0.33178204 0.72322583 -0.090973929 893
0.34147632 0.72088432 -0.091295764 735
0.33254409 0.68027604 -0.08469826 282
0.33776015 0.66997319 -0.083571851 240
0.29958376 0.57642365 -0.067158535 93
0.29174364 0.54485178 -0.062009264 47
0.30983171 0.56198102 -0.065871224 84
0.32254359 0.56844097 -0.067802191 107
0.33347151 0.57126129 -0.069089517 98
0.34603909 0.57643759 -0.070859581 124
0.3530868 0.57214773 -0.070859581 98
0.36377817 0.57360822 -0.07198599 92
0.37294307 0.57240987 -0.072629645 83
0.38542354 0.57599592 -0.074238792 67
0.39860579 0.58017439 -0.076008856 64
0.41081098 0.58250105 -0.077457085 61
0.42486721 0.5870139 -0.079388067 39
0.43850705 0.59047538 -0.081158131 41
0.45647877 0.59918696 -0.084054589 32
0.46987033 0.60132021 -0.085663751 38
0.48646608 0.60706633 -0.088077456 36
0.51016051 0.62088549 -0.092261255 28
0.52536762 0.62363988 -0.094192222 24
0.55361283 0.64105844 -0.099341497 33
0.56993812 0.64382744 -0.1014334 27
0.5937053 0.65433431 -0.10529535 22
0.62520367 0.67230552 -0.11092737 25
0.64838064 0.68030679 -0.1144675 19
0.6711567 0.68713188 -0.11784671 23
0.70257133 0.70187199 -0.12315689 10
0.72314155 0.70491379 -0.12589245 21
0.75103933 0.71435952 -0.13023715 23
0.77493584 0.71919411 -0.13361636 22
0.78809136 0.7136066 -0.13458185 40
0.79900742 0.70584285 -0.13506459 60
0.83451575 0.71918958 -0.14085753 37
0.83572584 0.70254099 -0.13924839 62
0.88624948 0.72666484 -0.14809869 27
0.90126503 0.7206676 -0.14938602 31
0.92638183 0.72230309 -0.15276523 35
0.94067454 0.71506333 -0.15389162 33
0.96364915 0.71404731 -0.1567881 25
0.98433846 0.71083909 -0.15920182 27
1.0026712 0.7055248 -0.1611328 30
1.0218345 0.70042497 -0.16322468 24
1.0533322 0.70318347 -0.1677303 22
1.0693283 0.69504774 -0.16917853 23
1.0977907 0.69454348 -0.17304049 27
1.1390035 0.70120841 -0.17931618 13
1.1669946 0.69884646 -0.18301721 23
1.2121518 0.70583898 -0.18993655 13
1.2524978 0.70890695 -0.1958904 27
1.2732087 0.70014477 -0.19814321 27
1.3069487 0.69795746 -0.20280974 28
1.3784959 0.71458638 -0.2143956 75
1.3845162 0.69628537 -0.21391286 81
1.3956176 0.68054122 -0.2143956 341
1.3985103 0.66083223 -0.21343012 553
1.4056171 0.6432097 -0.21326919 469
1.4115996 0.62511247 -0.21294738 217
1.4191645 0.60774291 -0.21294738 187
1.4265156 0.59028184 -0.21294738 184
1.4638945 0.5848223 -0.21825756 109
1.5087168 0.58137333 -0.22485508 349
1.4972343 0.55593973 -0.22163679 120
2.8607368 1.0228258 -0.45657244 67
1.5104268 0.51902831 -0.22163679 121
1.5129336 0.49921602 -0.22099312 205
1.5114186 0.47822869 -0.21970581 181
1.5181178 0.45993161 -0.21986671 64
3.0792246 0.8921923 -0.48392797 85
3.0832822 0.85249639 -0.48280156 83
3.0877852 0.81308693 -0.48183608 76
3.0984879 0.77537358 -0.48199701 93
3.1068094 0.737064 -0.48183608 76
3.1156204 0.69888324 -0.48183608 93
3.1210654 0.65998411 -0.48135334 103
3.1240892 0.62067205 -0.48054874 98
3.111094 0.5784964 -0.47716951 130
3.1218486 0.5409494 -0.47781318 129
3.1272776 0.50244206 -0.47765231 138
3.1234448 0.46258062 -0.47604316 117
3.123018 0.42342001 -0.47507763 93
3.1289585 0.38518462 -0.47523856 111
3.1412971 0.34762794 -0.4765259 131
3.128629 0.30741045 -0.47379035 99
3.1311824 0.2689096 -0.47362942 118
3.1362154 0.23060994 -0.47395122 105
3.1545708 0.19307303 -0.4765259 126
3.1488161 0.15396048 -0.47523856 110
3.1208794 0.11422146 -0.47041112 246
3.0559387 0.074299254 -0.45962983 193
2.8681238 0.034499828 -0.42889509 172
2.868331 -0.00069906138 -0.42889509 238
2.8740277 -0.035971157 -0.42986059 262
2.8753433 -0.071285851 -0.4301824 263
2.8781972 -0.10671111 -0.43082607 280
2.8737137 -0.14187738 -0.43034333 201
1.0345367 -0.064058341 -0.13023715 346
1.0120184 -0.075149193 -0.12669702 324
0.98447043 -0.085273311 -0.12235232 339
0.94995493 -0.094055064 -0.11688122 336
0.89870095 -0.10015184 -0.10867456 361
0.79455334 -0.098475918 -0.091778502 439
0.73460662 -0.10024288 -0.082123622 538
0.68548399 -0.10214876 -0.074238792 937
0.68320441 -0.11039612 -0.074077874 884
0.6662395 -0.11607034 -0.071503237 377
0.66864604 -0.12496043 -0.072146893 116
0.62737501 -0.12525754 -0.065549389 41
2.5037775 -0.53073388 -0.37852874 39
2.4672244 -0.55471224 -0.3735404 61
2.418941 -0.5751366 -0.36662105 75
2.3657477 -0.5932613 -0.35889715 65
2.3058 -0.60840732 -0.35004681 76
2.2686734 -0.62849367 -0.34505847 67
2.2086563 -0.6411618 -0.33620813 72
2.1571779 -0.65503335 -0.32880607 101
2.1113431 -0.66952896 -0.32236949 105
2.0739174 -0.68578738 -0.31738111 96
2.0298822 -0.6989814 -0.31126636 86
1.9923453 -0.71352786 -0.30627799 108
1.9547615 -0.72725999 -0.30128962 89
1.9125412 -0.73840213 -0.2954967 106
1.8795102 -0.7522853 -0.2913129 106
1.8409595 -0.76320368 -0.28616363 127
1.8042424 -0.77406889 -0.28133619 123
1.7729534 -0.78655005 -0.27747422 122
1.7389413 -0.79714799 -0.27312952 116
1.7102928 -0.80956382 -0.26975033 131
1.6931341 -0.82702678 -0.26846302 120
1.6846207 -0.84862947 -0.26878482 115
1.6828401 -0.87378484 -0.27039397 102
1.6893983 -0.90367705 -0.27361229 118
1.7015259 -0.93719232 -0.27795699 108
1.7156577 -0.97259921 -0.28278443 109
1.7342889 -1.0114743 -0.28857735 105
1.7649174 -1.0585628 -0.29678401 105
1.7887634 -1.1029265 -0.30386427 126
1.7884346 -1.1332442 -0.30643889 110
1.8083102 -1.1771762 -0.31303641 148
1.8084986 -1.20915 -0.31593287 177
1.7992207 -1.2351611 -0.31705928 161
1.7863486 -1.2588526 -0.31754202 512
1.7675667 -1.2783659 -0.31689838 294
1.7501607 -1.2987845 -0.31657654 341
1.7333055 -1.319566 -0.31641564 322
1.7006437 -1.3279836 -0.31303641 704
1.6695799 -1.3370341 -0.30997902 286
1.6324492 -1.3405139 -0.30563432 239
1.5992633 -1.3464643 -0.30209419 267
1.5654324 -1.3511592 -0.29839316 270
1.5324692 -1.3558826 -0.29485303 279
1.4996281 -1.3600029 -0.2913129 277
1.4705343 -1.3668823 -0.28857735 264
1.4386404 -1.3705318 -0.28519815 304
1.4104122 -1.3770535 -0.2826235 262
1.3773577 -1.3782043 -0.27892247 306
1.3479357 -1.3822864 -0.27602601 283
1.3199838 -1.3872854 -0.27345136 281
1.2934572 -1.3932546 -0.27119854 269
1.2683096 -1.4002459 -0.26926759 276
1.2451476 -1.4090496 -0.26781934 299
1.2200277 -1.4152545 -0.26588836 304
1.1943088 -1.420301 -0.26379648 303
1.1655209 -1.4211161 -0.26090002 327
1.1405942 -1.4260641 -0.25896904 341
1.11633 -1.4313942 -0.25719896 337
1.0933027 -1.4379157 -0.25575075 347
1.0679328 -1.4409175 -0.25365883 360
1.0414989 -1.4419148 -0.25124511 338
1.0180439 -1.446517 -0.24963595 346
0.99463362 -1.450762 -0.2480268 294
0.71579301 -1.0722082 -0.17143135 379
0.69881463 -1.0751199 -0.17030494 402
0.68292892 -1.0794449 -0.16950037 449
0.66704279 -1.0835426 -0.16869579 431
0.65065193 -1.0865669 -0.1677303 456
0.63577843 -1.0919114 -0.16724756 459
0.62135834 -1.0979135 -0.16692573 496
0.60593522 -1.101997 -0.16628207 511
0.59004062 -1.1049975 -0.1654775 514
0.57416391 -1.1077744 -0.16467293 523
0.558752 -1.1112102 -0.16402927 500
0.54420805 -1.1162094 -0.16370744 575
0.52962571 -1.1210191 -0.1633856 525
0.51500738 -1.1256393 -0.16306378 597
0.49955583 -1.128265 -0.16242011 545
0.48450643 -1.1315888 -0.16193737 517
0.46869561 -1.1328899 -0.1611328 532
0.45402527 -1.1367233 -0.16081096 573
0.43968663 -1.1412885 -0.16065004 504
0.42496058 -1.1447479 -0.16032822 539
0.41021594 -1.1480179 -0.16000639 566
0.39577621 -1.1520321 -0.15984547 567
0.38160917 -1.1568022 -0.15984547 498
0.36887455 -1.1661026 -0.16065004 453
0.35425049 -1.1695969 -0.16048914 468
0.33959627 -1.1729081 -0.16032822 416
0.34491232 -1.2483306 -0.17239684 155
0.413297 -1.5702852 -0.22598146 546
0.39591375 -1.5828981 -0.2272688 333
0.32494438 -1.3706129 -0.19090204 88
0.30096775 -1.3427178 -0.18559185 51
0.28773677 -1.3617594 -0.18816648 58
0.261767 -1.3187227 -0.18044257 114
0.25386977 -1.3664701 -0.18784466 93
0.23202312 -1.3403089 -0.18301721 69
0.21289439 -1.3264896 -0.18028165 78
0.18806231 -1.2714005 -0.17078769 104
0.16886266 -1.2472064 -0.16644299 135
0.15390694 -1.2521235 -0.16692573 126
0.13776912 -1.247051 -0.16579932 142
0.12235887 -1.2476655 -0.16563842 103
0.10720803 -1.2510399 -0.16596024 92
0.092137769 -1.2561985 -0.16660391 84
0.076896586 -1.2601898 -0.16708665 77
0.061474647 -1.2620243 -0.16724756 30
0.046671212 -1.2814234 -0.17030494 54
0.031280261 -1.2957132 -0.17255776 62
0.015893679 -1.338436 -0.17947708 76
-0.000532509 -1.3414911 -0.17995983 63
-0.017275672 -1.3640821 -0.18366088 105
-0.033527173 -1.3440341 -0.18044257 204
-0.049872275 -1.3395762 -0.17979892 276
-0.067908861 -1.3713939 -0.18510911 63
-0.08297462 -1.3418893 -0.18044257 178
-0.098708287 -1.3309271 -0.17883343 413
-0.11452466 -1.3237157 -0.17786793 429
-0.13008213 -1.3153353 -0.17674154 416
-0.14621352 -1.3136398 -0.17674154 289
-0.17695448 -1.4302701 -0.19621223 102
-0.19409399 -1.4250569 -0.19572948 124
-0.2121467 -1.4264729 -0.19637315 109
-0.22994952 -1.4257109 -0.19669497 81
-0.24776556 -1.4247266 -0.19701681 80
-0.27029181 -1.4487464 -0.20152242 234
-0.28747183 -1.4424165 -0.20103967 159
-0.30433279 -1.434918 -0.20039602 69
-0.31888959 -1.417594 -0.19814321 110
-0.34036839 -1.4308583 -0.20103967 50
0 0 0 28
-0.378149 -1.432572 -0.20280974 60
-0.39675379 -1.4316285 -0.20345339 73
-0.41429219 -1.4266518 -0.20345339 76
-0.43262804 -1.4242938 -0.20393614 77
-0.43576142 -1.3737167 -0.19621223 121
-0.4525862 -1.3682657 -0.19621223 118
-0.46902171 -1.3616755 -0.19605131 162
-0.48602882 -1.3567467 -0.19621223 145
-0.5029856 -1.3516052 -0.19637315 159
-0.52237642 -1.3526974 -0.19766046 154
-0.54113626 -1.3516834 -0.19862595 149
-0.56183851 -1.3549709 -0.20039602 146
-0.58270228 -1.3579522 -0.20216608 137
-0.60612351 -1.3660375 -0.20490164 145
-0.62900782 -1.3719559 -0.20731536 138
-0.6542381 -1.3819768 -0.21053365 149
-0.67807579 -1.3880349 -0.21310829 183
-0.70038414 -1.3901877 -0.21503927 190
-0.72102827 -1.3884965 -0.21632658 222
-0.74359715 -1.3899883 -0.21825756 290
-0.48547363 -0.881019 -0.12524879 364
-0.48992315 -0.86383212 -0.12315689 461
-0.50048685 -0.85775489 -0.12315689 508
-0.5114826 -0.85239518 -0.12331781 609
-0.52293998 -0.84773469 -0.12363964 671
-0.53277552 -0.84041977 -0.12347873 656
-0.54358691 -0.83464575 -0.12363964 608
-0.55488527 -0.82955343 -0.12396146 628
-0.56725717 -0.82593673 -0.12460513 617
-0.57905513 -0.82133406 -0.12508787 590
-0.59834254 -0.82696366 -0.12766251 656
-0.62138212 -0.83699769 -0.13120264 763
-0.64057225 -0.84109032 -0.13361636 1010
-0.63869941 -0.81760603 -0.13039806 672
-0.64004946 -0.79891974 -0.12814526 451
-0.65293622 -0.79481953 -0.12894984 487
-0.6670894 -0.79203308 -0.13007623 551
-0.68062705 -0.78827083 -0.13104172 490
-0.69678777 -0.78725213 -0.13265087 531
-0.70838481 -0.78083587 -0.13313362 583
-0.74277049 -0.79883635 -0.13908747 476
-0.77225578 -0.81038851 -0.14375399 494
-0.7952401 -0.81427097 -0.14681138 474
-0.81075639 -0.81003344 -0.14809869 539
-0.82416803 -0.80346912 -0.14890327 483
-0.83468068 -0.79397529 -0.14906418 461
-0.84653068 -0.78568774 -0.14954692 502
-0.85318303 -0.77258939 -0.14890327 472
-0.85890245 -0.75879282 -0.14809869 450
-0.58039588 -0.5000326 -0.086146489 291
-0.52002501 -0.43696097 -0.07198599 352
-0.52382207 -0.4292945 -0.071664155 515
-0.52442688 -0.41913429 -0.070698664 608
-0.53264344 -0.41509569 -0.071342319 770
-0.53534055 -0.40673548 -0.070859581 840
-0.54504836 -0.40366256 -0.071825072 930
-0.55796051 -0.4027243 -0.073434219 1070
-0.56366754 -0.39641514 -0.073595136 1053
-0.57255918 -0.39225963 -0.07439971 1067
-0.58061254 -0.38739681 -0.075043365 1036
-0.59028685 -0.38347146 -0.076008856 1011
-0.59578216 -0.37672678 -0.076169774 928
-0.62388915 -0.38388181 -0.080675378 1175
-0.63447928 -0.37974799 -0.081801787 984
-0.65529412 -0.38137412 -0.084859163 1114
-0.6642189 -0.37573582 -0.085663751 1075
-0.67742676 -0.3723146 -0.087272882 1139
-0.69151992 -0.36909026 -0.089042947 1058
-0.70037776 -0.36284864 -0.08984752 1035
-0.7091859 -0.35644493 -0.090652093 976
-0.73834288 -0.35983375 -0.095157713 776
-0.75608683 -0.35707432 -0.097571433 777
-0.7837432 -0.35845262 -0.10175522 680
-0.79800868 -0.3532064 -0.10352528 813
-0.80954045 -0.34649709 -0.10481261 782
-0.85020673 -0.35164055 -0.11124919 556
-0.8700375 -0.34740919 -0.11398475 419
-0.87883967 -0.33848184 -0.11478932 597
-0.87552589 -0.3249214 -0.11350201 524
-0.67964542 -0.24268727 -0.078905314 730
-0.67510587 -0.23176096 -0.077618003 788
-0.66196692 -0.21819757 -0.074882448 911
-0.66459471 -0.21005778 -0.074882448 910
-0.66617787 -0.20159997 -0.07472153 933
-0.6771332 -0.19588283 -0.076169774 721
-0.68043721 -0.18782175 -0.076330677 617
-0.69318926 -0.18222344 -0.078100741 459
-0.68962872 -0.17226498 -0.077135265 155
-1.8449939 -0.43754786 -0.27039397 101
-1.8290381 -0.41011894 -0.26685387 262
-1.8406924 -0.38907304 -0.26798025 246
-1.9130901 -0.37992662 -0.2792443 164
-1.8982021 -0.35281047 -0.27602601 84
-1.980185 -0.34298024 -0.28889918 14
-1.8643873 -0.29938269 -0.26910666 64
-1.8610867 -0.27546823 -0.26798025 68
-1.8457448 -0.25008741 -0.26492289 79
-1.9133258 -0.23538524 -0.27554324 46
-1.0940202 -0.12081522 -0.14069661 60
-1.9067394 -0.1871994 -0.27361229 19
-1.8774263 -0.16108038 -0.26846302 113
-1.805439 -0.13259193 -0.25639439 41
-1.8946054 -0.11580331 -0.2707158 116
-1.0964125 -0.053356767 -0.14021386 62
-1.1048751 -0.040187839 -0.14150119 39
-1.8758773 -0.045459166 -0.26717567 84
-1.8832022 -0.022519868 -0.26830208 81
-1.8961933 0.0014499337 -0.28220856 47
-1.8940611 0.024694532 -0.28187469 55
-1.8975581 0.048033107 -0.28254247 72
-1.9027375 0.07153409 -0.28354409 43
-1.9027011 0.094926752 -0.28371105 30
0 0 0 6
-1.4356883 0.1072867 -0.20491496 9
0 0 0 6
-1.5454614 0.15361895 -0.22411315 8
-1.4346861 0.16049299 -0.20558271 8
-1.9140472 0.23754114 -0.28771761 115
-1.8846097 0.25742486 -0.28321022 95
-1.8627787 0.27778095 -0.28003836 98
-1.8280801 0.29560229 -0.27469623 68
-1.7806007 0.31042138 -0.2671839 63
-1.2755384 0.23886855 -0.18087547 20
-1.1361654 0.22736084 -0.15733682 10
-1.1082112 0.23597305 -0.15299635 10
-1.0898403 0.24609596 -0.1503253 20
-1.0694718 0.25534812 -0.14732036 10
-1.0547811 0.26557636 -0.14531708 14
-1.0066344 0.26668274 -0.13747086 13
-0.98048091 0.27270082 -0.13346428 12
-0.9477064 0.2761949 -0.1282891 15
-0.91688508 0.27949962 -0.12344782 13
-0.89176887 0.28387818 -0.11960818 12
-0.86668652 0.28768346 -0.11576854 24
-0.8323254 0.2877081 -0.11025949 22
-0.8045969 0.28926042 -0.10591903 21
-0.79082114 0.29533193 -0.10408269 32
-0.74574435 0.28903991 -0.096570343 26
-0.72749448 0.29230967 -0.093899295 26
-0.70472461 0.29328862 -0.090393543 29
-0.68476164 0.29491979 -0.087388605 26
-0.66216326 0.29490712 -0.083882853 40
-0.64056748 0.2947962 -0.080544025 34
-0.62442434 0.29673108 -0.078206852 31
-0.60567403 0.29701728 -0.075368866 43
-0.59317732 0.29999307 -0.073699459 56
0 0 0 6
-0.57259434 0.3074863 -0.071195349 43
-0.58000606 0.32067189 -0.073365569 29
0 0 0 7
0 0 0 5
0 0 0 7
0 0 0 6
0 0 0 4
0 0 0 5
0 0 0 5
0 0 0 3
0 0 0 7
-0.33983752 0.24714521 -0.032298129 233
-0.32886061 0.24542232 -0.030628722 221
-0.31797835 0.24346811 -0.028959308 224
-0.30486321 0.23946455 -0.02678908 222
0 0 0 6
-0.26917401 0.22247547 -0.020278387 257
-0.2573716 0.21814296 -0.018275097 208
-0.24870342 0.21613191 -0.016939573 196
-0.24086276 0.21459499 -0.015770987 212
-0.23455895 0.21422334 -0.01493628 210
-0.22902335 0.21440096 -0.014268517 215
-0.21923529 0.21039557 -0.012599111 242
-0.2124034 0.20893799 -0.011597466 223
-0.2042468 0.20595044 -0.010261938 240
-0.19688483 0.20350081 -0.0090933517 307
-0.19505249 0.20661575 -0.0092602931 339
-0.1925023 0.20899379 -0.0092602931 358
0 0 0 6
0 0 0 5
0 0 0 5
0 0 0 7
0 0 0 5
0 0 0 4
0 0 0 3
0 0 0 2
0 0 0 3
0 0 0 1
0 0 0 2
0 0 0 1
0 0 0 3
0 0 0 1
0 0 0 1
0 0 0 1
0 0 0 1
0 0 0 1
0 0 0 1
0 0 0 1
0 0 0 1
0 0 0 1
0 0 0 1
0 0 0 1
0 0 0 1
0 0 0 1
0 0 0 1
0 0 0 1
0 0 0 1
0 0 0 1
0 0 0 1
0 0 0 2
0 0 0 2
0 0 0 2
0 0 0 3
0 0 0 4
0 0 0 1
0 0 0 1
0 0 0 1
0 0 0 1
0 0 0 1
0 0 0 1
0 0 0 1
0 0 0 1
0 0 0 1
0 0 0 4
0 0 0 4
0 0 0 5
0 0 0 6
-0.07826747 0.58556694 -0.061178897 174
-0.073607184 0.60703331 -0.064684644 307
-0.069082603 0.63435024 -0.069192052 549
-0.060713999 0.62926286 -0.068190411 1035
-0.053578507 0.63683689 -0.06935899 1291
-0.046410944 0.6462962 -0.070861459 1437
-0.038777947 0.65173769 -0.071696162 1522
-0.030825432 0.65314925 -0.0718631 1568
-0.022807965 0.65347832 -0.0718631 1565
-0.014835156 0.65568036 -0.07219699 1498
-0.0068236794 0.65877068 -0.072697818 1483
0.0012612655 0.66077679 -0.073031694 1471
0.0094189178 0.66465521 -0.073699459 1435
0.017574551 0.66448951 -0.073699459 1443
0.026128389 0.67506206 -0.075535804 1319
0.03460459 0.67862964 -0.07620357 1306
0.043111645 0.68110615 -0.076704398 1221
0.051466621 0.68052584 -0.076704398 1275
0.059813838 0.67984301 -0.076704398 1175
0.068539217 0.68298268 -0.077372149 1234
0.077350609 0.68600994 -0.078039914 1145
0.08624655 0.68892318 -0.07870768 1144
0.09549126 0.6936748 -0.079709321 1099
0.10443099 0.69537657 -0.080210149 1079
0.11327001 0.69598955 -0.080544025 1023
0.12180235 0.69454712 -0.080544025 1008
0.13103881 0.69687724 -0.08121179 1044
0.14015821 0.69811773 -0.081712618 1057
0.14932768 0.6992389 -0.082213432 1011
0.15854569 0.7002396 -0.08271426 1009
0.16803862 0.70207828 -0.083382025 994
0.17831957 0.70665807 -0.084550604 987
0.18823512 0.70918345 -0.085385308 1006
0.19823928 0.71157116 -0.086220011 950
0.20695643 0.70908487 -0.086220011 933
0.21650146 0.70932221 -0.086720839 921
0.22667919 0.7113114 -0.087555543 943
0.23755696 0.71502924 -0.088724121 993
0.24855982 0.71858621 -0.089892715 996
0.25902075 0.72012335 -0.090727419 971
0.26921296 0.72058702 -0.091395184 981
0.27910033 0.71998864 -0.091895998 913
0.28937969 0.72017109 -0.092563763 945
0.29970533 0.72020918 -0.093231529 907
0.31046385 0.72100788 -0.094066232 966
0.31569111 0.70903188 -0.092563763 525
0.33176124 0.72123867 -0.095568702 647
0.33215314 0.69928843 -0.092229888 479
0.30696699 0.62605196 -0.079208508 119
0.30620119 0.605506 -0.076036632 118
0.29771128 0.57107389 -0.070193693 63
0.31910914 0.5943312 -0.075368866 31
0.31591639 0.57136905 -0.071696162 74
0.32193199 0.56573361 -0.071362287 100
0.3343128 0.57110989 -0.073198631 76
0.34383109 0.57119244 -0.074033335 103
0.35288405 0.57028741 -0.074701101 96
0.3640767 0.57257742 -0.076036632 95
0.37484032 0.57385117 -0.077205211 71
0.38788101 0.57822496 -0.079041556 50
0.39829502 0.57829911 -0.080043212 48
0.40876874 0.57820404 -0.081044853 53
0.41987729 0.5787372 -0.082213432 49
0.43340975 0.58225143 -0.084049791 41
0.45007634 0.58944225 -0.086720839 34
0.46273628 0.59086943 -0.088223308 38
0.48042789 0.5982312 -0.091061294 22
0.49461457 0.60067326 -0.092897654 31
0.51528174 0.61039931 -0.096403405 29
0.53883642 0.62269217 -0.10057692 25
0.56407458 0.6359731 -0.10508433 17
0.57912111 0.63703811 -0.10692067 27
0.62447995 0.67033058 -0.11626936 9
0.63197893 0.66190279 -0.11610243 15
0.66760129 0.68232083 -0.12278005 18
0.69405365 0.69220096 -0.12712052 19
0.71378845 0.69464725 -0.12979157 19
0.73582864 0.69875103 -0.13296345 18
0.77035713 0.71382248 -0.13897333 34
0.78490406 0.70961148 -0.14030884 41
0.80980486 0.71429223 -0.14398155 37
0.82298952 0.70816422 -0.14498319 48
0.82256347 0.69039536 -0.14297991 65
0.89500344 0.73278069 -0.15700293 24
0.90007895 0.71866256 -0.15616822 29
0.92126834 0.7172668 -0.15883929 31
0.94255716 0.71545774 -0.16151033 23
0.95839417 0.70912218 -0.1630128 27
0.98220825 0.70827949 -0.16618468 26
0.99888796 0.70184898 -0.16785409 23
1.0212482 0.69901866 -0.17069209 19
1.0527061 0.7017678 -0.17536642 20
1.0761166 0.6984725 -0.17837135 13
1.0996022 0.69470686 -0.18137629 15
1.1475004 0.70546442 -0.18922251 17
1.1873646 0.71007985 -0.19539933 17
1.2266583 0.71332383 -0.20140919 35
1.2627739 0.71376437 -0.2067513 19
1.2956256 0.71152246 -0.21142565 27
1.3216518 0.70486253 -0.21476446 33
1.3914698 0.72036672 -0.22645031 80
1.3852321 0.69570315 -0.22361232 320
1.3936652 0.67865187 -0.22361232 230
1.3947573 0.65812695 -0.22227679 298
1.4081074 0.64342427 -0.22327845 157
1.4140942 0.62529737 -0.22294457 189
1.4189423 0.60673219 -0.22244374 284
1.4144384 0.58437061 -0.22027351 382
1.4462223 0.57685041 -0.2247809 170
1.4559522 0.56012368 -0.22528173 138
1.473807 0.5463354 -0.22728501 138
2.9166074 1.0418441 -0.48554254 50
2.9440908 1.011104 -0.48821354 168
1.4854274 0.48924536 -0.22594948 181
1.4781597 0.4668133 -0.22361232 132
1.5092528 0.45636266 -0.22811972 54
3.0725458 0.889305 -0.5027374 66
3.0832276 0.85153311 -0.5027374 78
3.0877242 0.81212622 -0.50173575 67
3.093632 0.77321625 -0.501068 78
3.1009691 0.73473907 -0.50073415 77
3.110714 0.69684595 -0.50090104 99
3.116137 0.65800804 -0.50040025 86
3.1230104 0.61952657 -0.50023329 70
3.1187456 0.57899189 -0.49823004 102
3.1256161 0.54067647 -0.49823004 85
3.1232541 0.5008713 -0.49672753 93
3.1174617 0.46077219 -0.49472427 94
3.1228814 0.42248145 -0.49472427 129
3.1278307 0.38412705 -0.49472427 101
3.1401491 0.34658304 -0.49605978 93
3.1314096 0.30676809 -0.49388957 84
3.1369028 0.26848671 -0.49422342 96
3.1370115 0.22975472 -0.49372262 96
3.1484518 0.19178422 -0.49522507 105
3.1535227 0.15327813 -0.49572593 103
3.1098421 0.11290556 -0.48804665 191
3.0370679 0.072931044 -0.47552603 169
2.8750613 0.033684514 -0.44798082 160
2.8624408 -0.0015974955 -0.44581059 220
2.871079 -0.036834177 -0.44731307 216
2.8654823 -0.071942218 -0.44647837 202
2.8771925 -0.10757441 -0.4486486 210
1.0538278 -0.053094327 -0.13980803 144
1.0334147 -0.064810209 -0.1364692 309
1.0148425 -0.076178633 -0.13346428 326
0.98534399 -0.086169019 -0.12862299 281
0.94594544 -0.094479345 -0.12211229 306
0.89473772 -0.10053036 -0.11359832 312
0.81515402 -0.10183521 -0.10024305 416
0.72689199 -0.10000787 -0.085385308 517
0.68172276 -0.1024035 -0.077872977 958
0.67944133 -0.11060479 -0.077706039 896
0.66929001 -0.11741586 -0.07620357 208
0.62708896 -0.11803423 -0.069192052 49
0.64009815 -0.1286082 -0.071696162 10
2.5058546 -0.53207952 -0.39489365 41
2.4702773 -0.55630493 -0.38988543 64
2.4210575 -0.57654679 -0.38254002 52
2.3812833 -0.59806311 -0.37686402 60
2.3175159 -0.61240542 -0.36701453 83
2.2708676 -0.63001114 -0.36016995 77
2.2269828 -0.64739001 -0.3538262 72
2.1622627 -0.65748841 -0.34380975 91
2.1192558 -0.67295051 -0.33763292 68
2.0780725 -0.68807656 -0.33179 71
2.026587 -0.6987651 -0.32411072 78
2.0122898 -0.72158796 -0.32310909 65
1.9496837 -0.72629464 -0.31342652 107
1.9047501 -0.73632109 -0.30691582 95
1.8763471 -0.75194871 -0.30341005 107
1.8378307 -0.76283932 -0.29806796 108
1.803865 -0.77484262 -0.29356056 94
1.7743917 -0.7881273 -0.28988785 96
1.7421776 -0.79957438 -0.28571433 87
1.7108448 -0.81077278 -0.28170776 109
1.6936786 -0.82824564 -0.28037223 108
1.6825067 -0.84852386 -0.28020528 118
1.6807184 -0.873649 -0.28187469 111
1.6907382 -0.90536618 -0.28588128 102
1.7036843 -0.93936133 -0.29055563 118
1.7151892 -0.97332251 -0.29506302 94
1.7320763 -1.0111817 -0.30073902 126
1.7736564 -1.0648099 -0.31142321 118
1.7999045 -1.110811 -0.31926945 132
1.7961327 -1.1391463 -0.32127273 120
1.8167261 -1.1836895 -0.32828423 166
1.8143594 -1.2141128 -0.33078834 176
1.8050143 -1.2401917 -0.33195695 159
1.7832112 -1.2577059 -0.33062142 393
1.765246 -1.2777607 -0.33012059 209
1.7470574 -1.2975646 -0.32961977 245
1.7294337 -1.3177116 -0.32928589 272
1.7006979 -1.3291277 -0.32661483 608
1.663478 -1.3332603 -0.32210743 234
1.6264156 -1.3366818 -0.31760004 218
1.5993294 -1.3476511 -0.31526285 231
1.5662485 -1.3530051 -0.31159016 256
1.5325412 -1.3570993 -0.30775052 258
1.5004326 -1.3618965 -0.30424476 245
1.4698839 -1.3674544 -0.3010729 270
1.4387127 -1.3717898 -0.29773408 299
1.4090701 -1.3769454 -0.29472914 237
1.3774282 -1.3794901 -0.29122338 236
1.3486921 -1.3842909 -0.28838539 267
1.3186877 -1.3871676 -0.2852135 273
1.2928435 -1.3938533 -0.28304327 258
1.2676971 -1.4008456 -0.28103998 239
1.243228 -1.4081709 -0.27920362 254
1.2181274 -1.414361 -0.27720034 267
1.191159 -1.4178848 -0.27469623 316
1.164289 -1.4209616 -0.27219212 330
1.1393722 -1.4259037 -0.27018884 354
1.1157237 -1.4320045 -0.26851943 351
1.0920978 -1.4377407 -0.26685002 356
1.065564 -1.4391537 -0.26434591 332
1.0362741 -1.4361382 -0.2610071 283
1.0157344 -1.4447155 -0.2601724 305
0.99346769 -1.4505666 -0.25883687 304
0.7132684 -1.0699238 -0.17887218 361
0.69954759 -1.0777696 -0.17870525 371
0.68363225 -1.0821075 -0.17787054 384
0.66616482 -1.0836993 -0.17653501 412
0.64977551 -1.086718 -0.17553337 408
0.63440543 -1.0912023 -0.1748656 409
0.61999524 -1.0971893 -0.17453171 378
0.60363269 -1.0995319 -0.17353007 444
0.58823568 -1.1033782 -0.17286231 451
0.57328939 -1.1078879 -0.17236149 435
0.55876446 -1.1130781 -0.1720276 438
0.5437662 -1.1171927 -0.17152679 459
0.52875131 -1.1211073 -0.17102596 454
0.51372248 -1.1248221 -0.17052513 436
0.4986822 -1.1283373 -0.17002432 418
0.48363328 -1.1316531 -0.16952349 461
0.46857819 -1.1347698 -0.16902266 437
0.45425159 -1.139519 -0.16885573 447
0.43952426 -1.1431677 -0.16852185 473
0.42511937 -1.1475511 -0.16835491 512
0.41100517 -1.1526816 -0.16835491 470
0.39554662 -1.1539087 -0.16768715 497
0.3813566 -1.1586759 -0.16768715 480
0.36651391 -1.1613885 -0.16735326 444
0.35252035 -1.1667423 -0.16752021 452
0.33845052 -1.1719275 -0.16768715 457
0.33876187 -1.2292088 -0.17703582 159
0.41280803 -1.5717465 -0.23629983 495
0.39348921 -1.576694 -0.23629983 334
0.3210642 -1.357882 -0.19740261 61
0.29919562 -1.3386308 -0.19339603 60
0.27866489 -1.3229091 -0.19005722 61
0.25741246 -1.3010858 -0.18571675 98
0.254951 -1.3768469 -0.19823731 112
0.2397199 -1.3895867 -0.19990672 114
0.20574962 -1.287289 -0.18187712 92
0.18646857 -1.2663093 -0.17787054 71
0.17091496 -1.2685022 -0.17787054 82
0.15292476 -1.2509327 -0.17453171 80
0.13691121 -1.2468352 -0.17353007 85
0.12169682 -1.2494028 -0.17369701 69
0.10627113 -1.2498196 -0.17353007 66
0.090998292 -1.2520128 -0.17369701 54
0.075808242 -1.2559876 -0.17419784 47
0.060727235 -1.2637169 -0.17536642 48
0.045178767 -1.2633818 -0.17519948 37
0.029888147 -1.2727121 -0.17670195 29
0.014327507 -1.2779125 -0.17753665 31
-0.0013594392 -1.3036271 -0.18187712 66
-0.017516095 -1.316329 -0.18404734 53
-0.034301192 -1.3416423 -0.18838781 72
-0.051236358 -1.3539292 -0.19055803 84
-0.068235531 -1.3610766 -0.19189356 50
-0.085296556 -1.3660413 -0.1928952 88
-0.097547255 -1.3039281 -0.18254487 263
-0.1137106 -1.3045975 -0.18287876 328
-0.13048579 -1.3109535 -0.18421429 366
-0.14699867 -1.3131732 -0.18488204 246
-0.17482397 -1.4061884 -0.20107532 139
-0.1923326 -1.4058911 -0.20140919 121
-0.21014982 -1.407326 -0.20207696 87
-0.22834472 -1.4104817 -0.2030786 53
-0.24664858 -1.4134018 -0.20408024 68
-0.26361337 -1.4083301 -0.20374636 120
0 0 0 92
-0.30259189 -1.4226569 -0.20741907 73
-0.31851408 -1.4121026 -0.20625047 87
0 0 0 34
-0.35666862 -1.4182063 -0.20875458 75
-0.34940475 -1.3202926 -0.19239439 132
-0.3682116 -1.3254075 -0.1940638 121
-0.38252538 -1.3141608 -0.1928952 126
-0.40148693 -1.3188024 -0.19456463 138
-0.422407 -1.3288144 -0.19723567 138
-0.44239485 -1.3347646 -0.19923896 151
-0.46291271 -1.341355 -0.20140919 143
-0.48332596 -1.3467127 -0.20341249 118
-0.50187784 -1.3462249 -0.20441413 154
-0.52368504 -1.3537625 -0.20691824 119
-0.54465336 -1.3582191 -0.20892154 149
-0.56392193 -1.3578091 -0.21009012 128
-0.58714807 -1.3661914 -0.2129281 136
-0.60906518 -1.3706005 -0.21509834 153
-0.63364238 -1.3800535 -0.21827023 166
-0.65559036 -1.3828688 -0.22027351 149
-0.67856729 -1.3871236 -0.22261067 153
-0.69864237 -1.3848565 -0.22377928 147
-0.71967196 -1.3840548 -0.22528173 196
-0.73660231 -1.3751191 -0.22528173 189
-0.4842608 -0.87712008 -0.13079321 325
-0.48964074 -0.86167556 -0.12895687 426
-0.50117117 -0.85730559 -0.12929074 488
-0.51368195 -0.85447329 -0.12995851 536
-0.52464628 -0.84894466 -0.13012545 571
-0.53396946 -0.84077674 -0.12979157 580
-0.54478467 -0.8349871 -0.12995851 496
-0.5538944 -0.82659948 -0.12962463 545
-0.56567007 -0.82217884 -0.13012545 525
-0.57628477 -0.81598139 -0.1302924 542
-0.60243028 -0.83121991 -0.13496675 676
-0.6190474 -0.83247489 -0.13680309 720
-0.6363821 -0.83423048 -0.13880637 833
-0.63079679 -0.80615127 -0.13446592 501
-0.64187449 -0.79988915 -0.13479979 416
-0.65226758 -0.79271418 -0.13496675 424
-0.66766053 -0.79143918 -0.1364692 510
-0.68247539 -0.78915823 -0.13780473 457
-0.70060021 -0.79032463 -0.13997497 433
-0.71819288 -0.79043305 -0.14197825 472
-0.74260414 -0.79745018 -0.14565095 458
-0.77137345 -0.80826867 -0.1503253 415
-0.79225302 -0.81003112 -0.15299635 481
-0.80840927 -0.80652165 -0.15449882 427
-0.8217746 -0.79998285 -0.15533352 403
-0.83367234 -0.79187751 -0.15583435 423
-0.8426047 -0.78091645 -0.15566741 403
-0.85139364 -0.76985556 -0.15550046 408
0 0 0 310
0 0 0 5
0 0 0 6
-0.50625175 -0.41383976 -0.0718631 519
-0.51052213 -0.40698016 -0.071696162 616
-0.52480656 -0.40796238 -0.073699459 776
-0.53291237 -0.40387905 -0.074367225 890
-0.55050087 -0.40670449 -0.077038273 1027
-0.55704868 -0.40107328 -0.077372149 1156
-0.56595951 -0.39704528 -0.078206852 1199
-0.57078922 -0.39007014 -0.078206852 1229
-0.58045232 -0.3863222 -0.079208508 1098
-0.59093517 -0.3829329 -0.080377087 1085
-0.5980891 -0.37723449 -0.080877915 1313
-0.6219815 -0.38175988 -0.084717557 1107
-0.6367687 -0.38017961 -0.086720839 1042
-0.65331304 -0.3792856 -0.089058012 1018
-0.66563982 -0.37561256 -0.090560481 979
-0.6753822 -0.37026757 -0.091562122 913
-0.68770158 -0.36613357 -0.093064591 902
-0.69564384 -0.35948262 -0.093732357 951
-0.70969117 -0.35579377 -0.095568702 826
-0.72375131 -0.35181352 -0.097405046 674
-0.75653791 -0.35639089 -0.10274716 646
-0.77609444 -0.35405785 -0.10558516 552
-0.79119807 -0.3493003 -0.10758844 578
-0.80901915 -0.34538966 -0.11009255 645
-0.86330009 -0.35618031 -0.1192743 365
-0.87309921 -0.34775528 -0.12027594 337
-0.85706198 -0.32921129 -0.11660324 465
